ply
format ascii 1.0
comment File generated
element vertex 2128
property float x
property float y
property float z
end_header
2717.89 -1116.46 3740
2715.17 -1111.68 3724
2711.64 -1106.61 3707
2708.76 -1101.83 3691
2717.59 -1101.83 3691
2714.6 -1097.06 3675
2710.79 -1091.98 3658
2702.44 -1085.11 3635
2711.13 -1085.11 3635
2719.82 -1085.11 3635
2716.5 -1080.34 3619
2719.13 -1077.95 3611
2710.39 -1071.08 3588
2718.97 -1071.08 3588
2703.99 -1061.83 3557
2701.05 -1057.35 3542
2698.05 -1052.88 3527
-1159.03 -458.398 1548
-1155.32 -458.398 1548
-1155.34 -459.879 1553
-1163.49 -464.617 1569
-1167.87 -467.874 1580
-1164.09 -467.874 1580
-1163.25 -469.059 1584
-1161.66 -469.947 1587
-1157.87 -469.947 1587
-1166.43 -474.981 1604
-1164.05 -475.574 1606
-1165.26 -477.647 1613
-1161.41 -477.647 1613
-1158.98 -478.239 1615
-1158.7 -479.719 1620
-1156.96 -480.608 1623
-1153.08 -480.608 1623
-1153.45 -482.384 1629
-1156.61 -485.346 1639
-1160.43 -488.603 1650
-1156.48 -488.603 1650
-1163.01 -493.045 1665
-1164.6 -495.414 1673
-1164.07 -496.895 1678
-1160.06 -496.895 1678
-1162.25 -499.56 1687
-1163.7 -501.929 1695
-1162.39 -503.113 1699
-1158.32 -503.113 1699
-1162.41 -506.667 1711
-1165.77 -509.924 1722
-1163.67 -510.812 1725
-1159.55 -510.812 1725
-1160.11 -512.885 1732
-1158.64 -514.07 1736
-1157.82 -515.55 1741
-1153.65 -515.55 1741
-1156.75 -518.808 1752
-1159.14 -521.769 1762
-1159.52 -523.842 1769
-1160.51 -526.211 1777
-1163.42 -529.468 1788
-1164.33 -531.837 1796
-1160.03 -531.837 1796
-1160.89 -534.206 1804
-1159.78 -535.687 1809
-1160.56 -538.056 1817
-1156.22 -538.056 1817
-1154.41 -539.24 1821
-1156.37 -542.201 1831
-1153.25 -542.794 1833
-1148.87 -542.794 1833
-1145.73 -543.386 1835
-1145.08 -545.163 1841
-1147.49 -548.42 1852
-1143.06 -548.42 1852
-1142.32 -550.197 1858
-1141.55 -551.973 1864
-1141.97 -554.342 1872
-1137.5 -554.342 1872
-1137.26 -556.415 1879
-1154.47 -567.076 1915
-1158.29 -571.221 1929
-1153.68 -571.221 1929
-1156.81 -575.071 1942
-1158.7 -578.328 1953
-1158.16 -580.401 1960
-1153.47 -580.401 1960
-1154.65 -583.362 1970
-1156.36 -586.62 1981
-1160.34 -591.062 1996
-1155.57 -591.062 1996
-1158.87 -595.207 2010
-1159.8 -598.169 2020
-1154.97 -598.169 2020
-1155.83 -601.13 2030
-1169.12 -610.606 2062
-1164.19 -610.606 2062
-1159.26 -610.606 2062
-1157.13 -612.086 2067
-1158.32 -615.344 2078
-1154.46 -615.936 2080
-1149.49 -615.936 2080
-1146.16 -616.824 2083
-1142.28 -617.417 2085
-1141.66 -619.786 2093
-1136.65 -619.786 2093
-1131.65 -619.786 2093
-1126.64 -619.786 2093
-1121.64 -619.786 2093
-1116.63 -619.786 2093
-1111.63 -619.786 2093
-1110.85 -622.155 2101
-1112.67 -626.004 2114
-1107.61 -626.004 2114
-1111.42 -631.038 2131
-1114.64 -635.776 2147
-1125.52 -644.956 2178
-1120.31 -644.956 2178
-1129.95 -653.544 2207
-1156.78 -672.199 2270
-1160.48 -677.53 2288
-1155.01 -677.53 2288
-1170.64 -689.967 2330
-1166.57 -690.855 2333
-1162.98 -692.04 2337
-1157.39 -692.04 2337
-1158.21 -695.889 2350
-1155.53 -697.666 2356
-1163.08 -705.661 2383
-1157.38 -705.661 2383
-1153.61 -706.846 2387
-1147.9 -706.846 2387
-1142.2 -706.846 2387
-1134.58 -705.661 2383
-1128.89 -705.661 2383
-1131.2 -710.695 2400
-1127.34 -711.88 2404
-1121.59 -711.88 2404
-1119.09 -713.953 2411
-1116.56 -716.026 2418
-1115.37 -718.987 2428
-1109.56 -718.987 2428
-1118.76 -728.759 2461
-1117.39 -731.72 2471
-1111.48 -731.72 2471
-1115.87 -738.531 2494
-1114.8 -741.788 2505
-1110.58 -742.973 2509
-1104.58 -742.973 2509
-1098.58 -742.973 2509
-1092.58 -742.973 2509
-1086.58 -742.973 2509
-1080.58 -742.973 2509
-1074.58 -742.973 2509
-1068.58 -742.973 2509
-1062.58 -742.973 2509
-1056.58 -742.973 2509
-1050.58 -742.973 2509
-1044.58 -742.973 2509
-1039.82 -743.861 2512
-1033.82 -743.861 2512
-1027.81 -743.861 2512
-1021.8 -743.861 2512
-1057.8 -872.675 2947
-1050.76 -872.675 2947
-1043.71 -872.675 2947
-1034.9 -871.194 2942
-1040.79 -882.151 2979
-1058.31 -903.175 3050
-1051.01 -903.175 3050
-1049.54 -908.209 3067
-1042.2 -908.209 3067
-1034.87 -908.209 3067
-1027.53 -908.209 3067
-1039.16 -925.088 3124
-1059.43 -949.963 3208
-1059.96 -957.366 3233
-1052.22 -957.366 3233
-1048.69 -961.215 3246
-1047.02 -966.842 3265
-1059.91 -986.09 3330
-1051.94 -986.09 3330
-1065.3 -1006.23 3398
-1059.35 -1008.3 3405
-1051.21 -1008.3 3405
-1043.07 -1008.3 3405
-1043.43 -1016.59 3433
-1045.78 -1026.95 3468
-1037.49 -1026.95 3468
-1029.19 -1026.95 3468
-1020.9 -1026.95 3468
-1008.52 -1022.81 3454
-1000.26 -1022.81 3454
-989.989 -1020.74 3447
-981.746 -1020.74 3447
-973.503 -1020.74 3447
-965.26 -1020.74 3447
-953.131 -1016.59 3433
-944.921 -1016.59 3433
-938.622 -1018.66 3440
-930.396 -1018.66 3440
-922.17 -1018.66 3440
-913.944 -1018.66 3440
-902.032 -1014.52 3426
-893.839 -1014.52 3426
-885.646 -1014.52 3426
-877.454 -1014.52 3426
-869.261 -1014.52 3426
-861.069 -1014.52 3426
-852.876 -1014.52 3426
-844.683 -1014.52 3426
-836.491 -1014.52 3426
-828.298 -1014.52 3426
-820.106 -1014.52 3426
-816.89 -1020.74 3447
-811.931 -1024.88 3461
-805.28 -1026.95 3468
-796.987 -1026.95 3468
-797.109 -1037.91 3505
-792.103 -1042.35 3520
-783.685 -1042.35 3520
-775.268 -1042.35 3520
-768.375 -1044.43 3527
-761.45 -1046.5 3534
-757.899 -1053.31 3557
-749.393 -1053.31 3557
-740.888 -1053.31 3557
-734.029 -1055.68 3565
-726.929 -1057.75 3572
-718.387 -1057.75 3572
-711.435 -1060.12 3580
-705.819 -1064.56 3595
-700.325 -1069.3 3611
-691.69 -1069.3 3611
-686.082 -1074.04 3627
-677.409 -1074.04 3627
-668.735 -1074.04 3627
-661.518 -1076.41 3635
-656.956 -1083.22 3658
-648.209 -1083.22 3658
-641.035 -1085.88 3667
-636.404 -1092.99 3691
-627.578 -1092.99 3691
-621.434 -1097.73 3707
-615.378 -1102.76 3724
-610.544 -1110.17 3749
-601.579 -1110.17 3749
-596.566 -1117.57 3774
-601.241 -1143.63 3862
-593.386 -1146.29 3871
-584.129 -1146.29 3871
-578.882 -1154.29 3898
-569.561 -1154.29 3898
-560.239 -1154.29 3898
-545.83 -1143.63 3862
-534.094 -1138.3 3844
-524.902 -1138.3 3844
-515.71 -1138.3 3844
-506.517 -1138.3 3844
-497.325 -1138.3 3844
-488.133 -1138.3 3844
-478.941 -1138.3 3844
-468.649 -1135.63 3835
-460.557 -1138.3 3844
-452.421 -1140.96 3853
-443.208 -1140.96 3853
-433.994 -1140.96 3853
-423.788 -1138.3 3844
-413.625 -1135.63 3835
-404.454 -1135.63 3835
-395.284 -1135.63 3835
-384.402 -1130.6 3818
-373.502 -1125.27 3800
-364.415 -1125.27 3800
-354.58 -1122.9 3792
-345.513 -1122.9 3792
-337.155 -1125.27 3800
-328.068 -1125.27 3800
-318.981 -1125.27 3800
-309.894 -1125.27 3800
-298.749 -1117.57 3774
-287.114 -1107.5 3740
-278.17 -1107.5 3740
-269.227 -1107.5 3740
-259.727 -1105.13 3732
-249.727 -1100.39 3716
-240.841 -1100.39 3716
-230.894 -1095.36 3699
-220.127 -1085.88 3667
-210.84 -1083.22 3658
-202.092 -1083.22 3658
-193.345 -1083.22 3658
-183.79 -1078.48 3642
-170.995 -1053.31 3557
-162.489 -1053.31 3557
-152.381 -1042.35 3520
-141.551 -1024.88 3461
-131.388 -1010.37 3412
-121.459 -995.862 3363
-113.417 -995.862 3363
-104.968 -992.012 3350
-96.1753 -984.017 3323
-87.5386 -976.318 3297
-79.6545 -976.318 3297
-71.3568 -970.691 3278
-63.1305 -964.769 3258
-54.915 -957.366 3233
-47.184 -957.366 3233
-39.3064 -953.812 3221
-31.3587 -946.409 3196
-23.6716 -944.633 3190
-16.0434 -944.633 3190
-8.39928 -942.856 3184
-0.78389 -941.079 3178
6.8028 -939.302 3172
14.3608 -937.526 3166
21.9317 -937.526 3166
29.5025 -937.526 3166
37.0734 -937.526 3166
44.5597 -935.749 3160
52.1162 -935.749 3160
59.6727 -935.749 3160
67.3569 -937.526 3166
74.9277 -937.526 3166
82.4986 -937.526 3166
90.0695 -937.526 3166
98.0104 -941.079 3178
105.809 -942.856 3184
113.423 -942.856 3184
121.037 -942.856 3184
128.651 -942.856 3184
136.265 -942.856 3184
143.879 -942.856 3184
151.493 -942.856 3184
159.107 -942.856 3184
166.721 -942.856 3184
174.663 -944.633 3190
182.291 -944.633 3190
190.277 -946.409 3196
198.291 -948.186 3202
205.948 -948.186 3202
213.605 -948.186 3202
221.262 -948.186 3202
228.919 -948.186 3202
236.576 -948.186 3202
245.148 -951.74 3214
252.834 -951.74 3214
260.519 -951.74 3214
268.205 -951.74 3214
275.891 -951.74 3214
281.988 -946.409 3196
288.543 -942.856 3184
296.715 -944.633 3190
304.343 -944.633 3190
311.972 -944.633 3190
319.6 -944.633 3190
327.228 -944.633 3190
334.856 -944.633 3190
342.485 -944.633 3190
350.113 -944.633 3190
357.068 -942.856 3184
364.682 -942.856 3184
372.296 -942.856 3184
379.194 -941.079 3178
386.794 -941.079 3178
394.393 -941.079 3178
401.993 -941.079 3178
409.592 -941.079 3178
417.192 -941.079 3178
423.99 -939.302 3172
431.575 -939.302 3172
438.329 -937.526 3166
446.745 -939.302 3172
455.19 -941.079 3178
462.789 -941.079 3178
470.389 -941.079 3178
477.988 -941.079 3178
484.671 -939.302 3172
492.256 -939.302 3172
499.842 -939.302 3172
507.427 -939.302 3172
515.012 -939.302 3172
522.597 -939.302 3172
530.183 -939.302 3172
537.768 -939.302 3172
545.353 -939.302 3172
552.938 -939.302 3172
560.523 -939.302 3172
568.109 -939.302 3172
575.694 -939.302 3172
585.486 -942.856 3184
594.217 -944.633 3190
601.845 -944.633 3190
611.766 -948.186 3202
621.745 -951.74 3214
636.872 -962.992 3252
644.649 -962.992 3252
652.425 -962.992 3252
660.202 -962.992 3252
667.978 -962.992 3252
2668.4 -1210.85 4089
2678.17 -1210.85 4089
2687.95 -1210.85 4089
2691.13 -1207.89 4079
2681.02 -1199 4049
2690.7 -1199 4049
2693.72 -1196.04 4039
2703.38 -1196.04 4039
2693.56 -1187.45 4010
2703.14 -1187.45 4010
2699.88 -1181.83 3991
2677.52 -1167.91 3944
2674 -1162.28 3925
2683.39 -1162.28 3925
2674.25 -1154.29 3898
2652.59 -1140.96 3853
2637.63 -1130.6 3818
2646.76 -1130.6 3818
2655.89 -1130.6 3818
2665.02 -1130.6 3818
2667.84 -1127.93 3809
2670.63 -1125.27 3800
2679.71 -1125.27 3800
2688.8 -1125.27 3800
2722.74 -1135.63 3835
2731.91 -1135.63 3835
2741.08 -1135.63 3835
2725.15 -1125.27 3800
2709.77 -1115.2 3766
2718.78 -1115.2 3766
2708.95 -1107.5 3740
2717.89 -1107.5 3740
2715.17 -1102.76 3724
2711.64 -1097.73 3707
2708.76 -1092.99 3691
2717.59 -1092.99 3691
2714.6 -1088.25 3675
2717.46 -1085.88 3667
2707.64 -1078.48 3642
2716.35 -1078.48 3642
2713.83 -1074.04 3627
2722.51 -1074.04 3627
2713.11 -1066.93 3603
2710.39 -1062.49 3588
2718.97 -1062.49 3588
2703.99 -1053.31 3557
2694.95 -1046.5 3534
2698.05 -1044.43 3527
-1156.78 -453.809 1545
-1153.08 -453.809 1545
-1152.37 -454.984 1549
-1162.75 -460.565 1568
-1165.65 -463.208 1577
-1161.88 -463.208 1577
-1162.52 -464.971 1583
-1161.66 -466.146 1587
-1157.87 -466.146 1587
-1164.25 -470.258 1601
-1164.05 -471.726 1606
-1163.1 -472.901 1610
-1159.25 -472.901 1610
-1158.98 -474.37 1615
-1158.7 -475.839 1620
-1156.96 -476.72 1623
-1153.08 -476.72 1623
-1153.45 -478.482 1629
-1156.61 -481.419 1639
-1160.43 -484.65 1650
-1156.48 -484.65 1650
-1160.92 -488.175 1662
-1163.91 -491.112 1672
-1161.99 -491.994 1675
-1157.98 -491.994 1675
-1158.8 -494.05 1682
-1163.02 -497.574 1694
-1161.02 -498.456 1697
-1156.96 -498.456 1697
-1161.05 -501.98 1709
-1165.77 -505.799 1722
-1163.67 -506.68 1725
-1159.55 -506.68 1725
-1160.11 -508.736 1732
-1158.64 -509.911 1736
-1157.82 -511.38 1741
-1153.65 -511.38 1741
-1156.75 -514.611 1752
-1159.14 -517.548 1762
-1154.93 -517.548 1762
-1160.51 -521.954 1777
-1163.42 -525.185 1788
-1164.33 -527.535 1796
-1160.03 -527.535 1796
-1160.89 -529.885 1804
-1159.78 -531.353 1809
-1159.29 -533.116 1815
-1154.94 -533.116 1815
-1153.14 -534.29 1819
-1153.84 -536.64 1827
-1151.99 -537.815 1831
-1147.61 -537.815 1831
-1145.73 -538.99 1835
-1142.59 -539.578 1837
-1143.15 -541.927 1845
-1138.74 -541.927 1845
-1139.86 -544.571 1854
-1139.1 -546.333 1860
-1139.53 -548.683 1868
-1135.07 -548.683 1868
-1133.02 -549.858 1872
-1150.85 -560.726 1909
-1152.89 -563.957 1920
-1148.3 -563.957 1920
-1155.62 -569.831 1940
-1157.51 -573.062 1951
-1158.16 -575.706 1960
-1153.47 -575.706 1960
-1154.65 -578.643 1970
-1156.36 -581.874 1981
-1160.34 -586.28 1996
-1155.57 -586.28 1996
-1158.87 -590.392 2010
-1159.8 -593.33 2020
-1154.97 -593.33 2020
-1155.83 -596.267 2030
-1169.12 -605.666 2062
-1164.19 -605.666 2062
-1159.26 -605.666 2062
-1157.13 -607.135 2067
-1158.32 -610.366 2078
-1154.46 -610.953 2080
-1149.49 -610.953 2080
-1146.16 -611.835 2083
-1142.28 -612.422 2085
-1141.66 -614.772 2093
-1136.65 -614.772 2093
-1131.65 -614.772 2093
-1126.64 -614.772 2093
-1121.64 -614.772 2093
-1116.63 -614.772 2093
-1111.63 -614.772 2093
-1110.85 -617.122 2101
-1112.67 -620.94 2114
-1107.61 -620.94 2114
-1111.42 -625.933 2131
-1113.08 -629.752 2144
-1119.84 -636.508 2167
-1114.65 -636.508 2167
-1129.95 -648.257 2207
-1153.72 -664.999 2264
-1157.44 -670.286 2282
-1151.98 -670.286 2282
-1154.56 -674.986 2298
-1157.07 -679.686 2314
-1158 -683.504 2327
-1152.44 -683.504 2327
-1153.28 -687.323 2340
-1154.06 -691.141 2353
-1154.78 -694.959 2366
-1149.12 -694.959 2366
-1148.3 -697.897 2376
-1142.61 -697.897 2376
-1136.93 -697.897 2376
-1131.25 -697.897 2376
-1128.89 -699.953 2383
-1127.9 -702.89 2393
-1125.46 -704.946 2400
-1119.72 -704.946 2400
-1113.98 -704.946 2400
-1113.32 -708.177 2411
-1112.15 -711.114 2421
-1106.36 -711.114 2421
-1116.94 -721.689 2457
-1116.04 -724.92 2468
-1111.48 -725.801 2471
-1115.87 -732.557 2494
-1111.24 -733.438 2497
-1108.81 -735.788 2505
-1102.82 -735.788 2505
-1096.83 -735.788 2505
-1090.84 -735.788 2505
-1084.85 -735.788 2505
-1080.58 -736.962 2509
-1074.58 -736.962 2509
-1068.58 -736.962 2509
-1062.58 -736.962 2509
-1056.58 -736.962 2509
-1050.58 -736.962 2509
-1044.58 -736.962 2509
-1039.82 -737.844 2512
-1033.82 -737.844 2512
-1027.81 -737.844 2512
-1020.58 -736.962 2509
-1057.8 -865.615 2947
-1050.76 -865.615 2947
-1043.71 -865.615 2947
-1034.9 -864.146 2942
-1040.79 -875.014 2979
-1058.31 -895.869 3050
-1051.01 -895.869 3050
-1049.54 -900.862 3067
-1042.2 -900.862 3067
-1034.87 -900.862 3067
-1027.53 -900.862 3067
-1039.16 -917.605 3124
-1059.43 -942.278 3208
-1057.99 -947.859 3227
-1050.27 -947.859 3227
-1048.69 -953.44 3246
-1042.86 -955.202 3252
-1055.77 -974.294 3317
-1047.84 -974.294 3317
-1065.3 -998.086 3398
-1059.35 -1000.14 3405
-1051.21 -1000.14 3405
-1043.07 -1000.14 3405
-1043.43 -1008.37 3433
-1045.78 -1018.65 3468
-1037.49 -1018.65 3468
-1029.19 -1018.65 3468
-1020.9 -1018.65 3468
-1008.52 -1014.53 3454
-1000.26 -1014.53 3454
-989.989 -1012.48 3447
-981.746 -1012.48 3447
-973.503 -1012.48 3447
-965.26 -1012.48 3447
-953.131 -1008.37 3433
-946.848 -1010.42 3440
-938.622 -1010.42 3440
-930.396 -1010.42 3440
-922.17 -1010.42 3440
-913.944 -1010.42 3440
-902.032 -1006.31 3426
-893.839 -1006.31 3426
-883.837 -1004.25 3419
-875.661 -1004.25 3419
-867.485 -1004.25 3419
-859.309 -1004.25 3419
-851.133 -1004.25 3419
-842.957 -1004.25 3419
-834.782 -1004.25 3419
-828.298 -1006.31 3426
-820.106 -1006.31 3426
-815.231 -1010.42 3440
-810.289 -1014.53 3454
-803.655 -1016.59 3461
-795.378 -1016.59 3461
-797.109 -1029.52 3505
-790.302 -1031.57 3512
-781.904 -1031.57 3512
-773.506 -1031.57 3512
-766.85 -1033.92 3520
-759.941 -1035.98 3527
-757.899 -1044.79 3557
-749.393 -1044.79 3557
-740.888 -1044.79 3557
-732.382 -1044.79 3557
-725.504 -1047.14 3565
-716.979 -1047.14 3565
-711.435 -1051.54 3580
-704.445 -1053.89 3588
-698.774 -1058.3 3603
-690.158 -1058.3 3603
-684.569 -1063 3619
-675.914 -1063 3619
-668.735 -1065.35 3627
-661.518 -1067.7 3635
-652.826 -1067.7 3635
-646.791 -1072.11 3650
-639.462 -1074.46 3658
-630.714 -1074.46 3658
-621.967 -1074.46 3658
-618.751 -1084.15 3691
-615.378 -1093.84 3724
-607.776 -1096.19 3732
-598.852 -1096.19 3732
-596.566 -1108.53 3774
-601.241 -1134.38 3862
-593.386 -1137.02 3871
-588.203 -1144.95 3898
-578.882 -1144.95 3898
-569.561 -1144.95 3898
-560.239 -1144.95 3898
-550.918 -1144.95 3898
-535.344 -1131.73 3853
-526.131 -1131.73 3853
-516.917 -1131.73 3853
-507.703 -1131.73 3853
-498.49 -1131.73 3853
-488.133 -1129.09 3844
-478.941 -1129.09 3844
-468.649 -1126.45 3835
-460.557 -1129.09 3844
-452.421 -1131.73 3853
-443.208 -1131.73 3853
-433.994 -1131.73 3853
-423.788 -1129.09 3844
-413.625 -1126.45 3835
-404.454 -1126.45 3835
-395.284 -1126.45 3835
-384.402 -1121.45 3818
-373.502 -1116.16 3800
-364.415 -1116.16 3800
-354.58 -1113.81 3792
-344.693 -1111.17 3783
-335.646 -1111.17 3783
-326.6 -1111.17 3783
-317.554 -1111.17 3783
-307.773 -1108.53 3774
-296.057 -1098.54 3740
-286.5 -1096.19 3732
-277.575 -1096.19 3732
-267.499 -1091.49 3716
-258.613 -1091.49 3716
-248.584 -1086.5 3699
-239.739 -1086.5 3699
-229.395 -1079.45 3675
-219.587 -1074.46 3658
-210.84 -1074.46 3658
-202.092 -1074.46 3658
-192.499 -1069.76 3642
-182.629 -1063 3619
-169.216 -1033.92 3520
-160.799 -1033.92 3520
-150.779 -1023.05 3483
-139.547 -1002.2 3412
-129.501 -987.806 3363
-120.014 -976.057 3323
-112.068 -976.057 3323
-103.495 -970.182 3303
-95.2202 -966.364 3290
-87.1935 -964.601 3284
-79.3404 -964.601 3284
-70.9214 -956.964 3258
-62.7624 -951.384 3239
-54.8131 -947.859 3227
-47.0964 -947.859 3227
-39.3064 -946.096 3221
-31.4176 -940.516 3202
-23.7161 -938.753 3196
-16.0735 -938.753 3196
-8.41511 -936.991 3190
-0.78389 -933.466 3178
6.81567 -933.466 3178
14.3608 -929.941 3166
21.9317 -929.941 3166
29.5025 -929.941 3166
37.0734 -929.941 3166
44.5597 -928.179 3160
52.2151 -929.941 3166
59.786 -929.941 3166
67.3569 -929.941 3166
74.9277 -929.941 3166
82.4986 -929.941 3166
90.0695 -929.941 3166
98.1954 -935.229 3184
105.809 -935.229 3184
113.423 -935.229 3184
121.037 -935.229 3184
128.651 -935.229 3184
136.265 -935.229 3184
143.879 -935.229 3184
151.493 -935.229 3184
159.107 -935.229 3184
167.035 -936.991 3190
174.992 -938.753 3196
182.634 -938.753 3196
190.277 -938.753 3196
198.291 -940.516 3202
205.948 -940.516 3202
214.005 -942.278 3208
221.676 -942.278 3208
229.348 -942.278 3208
237.019 -942.278 3208
245.148 -944.04 3214
252.834 -944.04 3214
260.519 -944.04 3214
268.205 -944.04 3214
275.891 -944.04 3214
281.988 -938.753 3196
288.543 -935.229 3184
296.157 -935.229 3184
304.343 -936.991 3190
311.972 -936.991 3190
319.6 -936.991 3190
327.228 -936.991 3190
334.856 -936.991 3190
342.485 -936.991 3190
349.454 -935.229 3184
356.395 -933.466 3178
363.995 -933.466 3178
371.595 -933.466 3178
379.194 -933.466 3178
386.063 -931.704 3172
393.649 -931.704 3172
400.475 -929.941 3166
408.046 -929.941 3166
415.617 -929.941 3166
423.188 -929.941 3166
430.758 -929.941 3166
438.329 -929.941 3166
445.9 -929.941 3166
453.471 -929.941 3166
461.042 -929.941 3166
468.613 -929.941 3166
476.184 -929.941 3166
483.754 -929.941 3166
491.325 -929.941 3166
498.896 -929.941 3166
506.467 -929.941 3166
514.038 -929.941 3166
521.609 -929.941 3166
529.18 -929.941 3166
536.751 -929.941 3166
544.321 -929.941 3166
551.892 -929.941 3166
559.463 -929.941 3166
567.034 -929.941 3166
574.605 -929.941 3166
583.279 -931.704 3172
591.982 -933.466 3178
599.581 -933.466 3178
607.181 -933.466 3178
619.423 -940.516 3202
634.326 -951.384 3239
642.072 -951.384 3239
652.425 -955.202 3252
660.202 -955.202 3252
667.978 -955.202 3252
2661.87 -1198.11 4079
2671.62 -1198.11 4079
2681.38 -1198.11 4079
2691.13 -1198.11 4079
2681.02 -1189.3 4049
2690.7 -1189.3 4049
2693.72 -1186.37 4039
2703.38 -1186.37 4039
2693.56 -1177.85 4010
2703.14 -1177.85 4010
2699.88 -1172.27 3991
2677.52 -1158.46 3944
2680.82 -1155.82 3935
2690.23 -1155.82 3935
2674.25 -1144.95 3898
2658.79 -1134.38 3862
2655.59 -1129.09 3844
2664.78 -1129.09 3844
2673.97 -1129.09 3844
2676.88 -1126.45 3835
2674.15 -1121.45 3818
2683.28 -1121.45 3818
2692.41 -1121.45 3818
2701.54 -1121.45 3818
2729.13 -1129.09 3844
2738.32 -1129.09 3844
2747.51 -1129.09 3844
2750.25 -1126.45 3835
2722 -1111.17 3783
2718.78 -1106.18 3766
2715.47 -1101.18 3749
2724.43 -1101.18 3749
2721 -1096.19 3732
2718.22 -1091.49 3716
2714.63 -1086.5 3699
2723.48 -1086.5 3699
2720.51 -1081.8 3683
2717.46 -1077.1 3667
2707.64 -1069.76 3642
2716.35 -1069.76 3642
2713.83 -1065.35 3627
2722.51 -1065.35 3627
2713.11 -1058.3 3603
2710.39 -1053.89 3588
2718.97 -1053.89 3588
2703.99 -1044.79 3557
2694.95 -1038.03 3534
2698.05 -1035.98 3527
-1155.28 -449.525 1543
-1151.59 -449.525 1543
-1152.37 -451.273 1549
-1161.27 -456.226 1566
-1163.44 -458.557 1574
-1159.67 -458.557 1574
-1160.32 -460.305 1580
-1160.93 -462.053 1586
-1157.14 -462.053 1586
-1159.89 -464.675 1595
-1160.42 -466.423 1601
-1162.37 -468.753 1609
-1158.53 -468.753 1609
-1158.98 -470.501 1615
-1157.27 -471.375 1618
-1156.96 -472.832 1623
-1153.08 -472.832 1623
-1153.45 -474.58 1629
-1154.49 -476.619 1636
-1158.32 -479.824 1647
-1154.38 -479.824 1647
-1159.52 -483.611 1660
-1163.91 -487.107 1672
-1161.99 -487.981 1675
-1157.98 -487.981 1675
-1157.42 -489.438 1680
-1163.02 -493.516 1694
-1161.02 -494.39 1697
-1156.96 -494.39 1697
-1161.05 -497.886 1709
-1163.06 -500.508 1718
-1163.67 -502.548 1725
-1159.55 -502.548 1725
-1159.44 -504.296 1731
-1158.64 -505.752 1736
-1157.82 -507.209 1741
-1153.65 -507.209 1741
-1156.75 -510.414 1752
-1159.14 -513.327 1762
-1154.93 -513.327 1762
-1160.51 -517.697 1777
-1163.42 -520.902 1788
-1164.33 -523.232 1796
-1160.03 -523.232 1796
-1160.89 -525.563 1804
-1159.78 -527.02 1809
-1159.29 -528.768 1815
-1154.94 -528.768 1815
-1154.41 -530.516 1821
-1153.84 -532.264 1827
-1151.99 -533.429 1831
-1147.61 -533.429 1831
-1144.48 -534.012 1833
-1142.59 -535.177 1837
-1143.15 -537.508 1845
-1138.74 -537.508 1845
-1137.4 -538.964 1850
-1137.88 -541.295 1858
-1135.87 -542.46 1862
-1131.42 -542.46 1862
-1130.6 -544.208 1868
-1144.22 -552.948 1898
-1149.89 -557.901 1915
-1145.31 -557.901 1915
-1152.64 -563.728 1935
-1157.51 -568.389 1951
-1158.16 -571.011 1960
-1153.47 -571.011 1960
-1154.65 -573.924 1970
-1156.36 -577.129 1981
-1160.34 -581.499 1996
-1155.57 -581.499 1996
-1158.87 -585.577 2010
-1159.8 -588.491 2020
-1157.83 -589.947 2025
-1155.83 -591.404 2030
-1169.12 -600.727 2062
-1164.19 -600.727 2062
-1159.26 -600.727 2062
-1157.13 -602.183 2067
-1158.32 -605.388 2078
-1154.46 -605.971 2080
-1149.49 -605.971 2080
-1146.16 -606.845 2083
-1142.28 -607.427 2085
-1141.66 -609.758 2093
-1136.65 -609.758 2093
-1131.65 -609.758 2093
-1126.64 -609.758 2093
-1124.32 -611.215 2098
-1119.3 -611.215 2098
-1114.28 -611.215 2098
-1113.49 -613.545 2106
-1116.88 -618.207 2122
-1111.81 -618.207 2122
-1117.16 -624.033 2142
-1117.75 -627.238 2153
-1122.42 -632.773 2172
-1117.23 -632.773 2172
-1131.49 -643.844 2210
-1136.4 -649.67 2230
-1154.39 -663.072 2276
-1148.95 -663.072 2276
-1149.54 -666.568 2288
-1150.57 -670.355 2301
-1151.53 -674.142 2314
-1146 -674.142 2314
-1146.87 -677.93 2327
-1147.69 -681.717 2340
-1146.97 -684.63 2350
-1141.35 -684.63 2350
-1142.01 -688.418 2363
-1137.81 -689.292 2366
-1134.06 -690.457 2370
-1128.39 -690.457 2370
-1122.73 -690.457 2370
-1125.07 -695.41 2387
-1122.18 -697.158 2393
-1116.46 -697.158 2393
-1110.73 -697.158 2393
-1108.24 -699.197 2400
-1107.56 -702.402 2411
-1101.79 -702.402 2411
-1108.76 -710.559 2439
-1116.04 -719.008 2468
-1111.48 -719.881 2471
-1105.58 -719.881 2471
-1109.9 -726.582 2494
-1105.27 -727.456 2497
-1099.3 -727.456 2497
-1093.32 -727.456 2497
-1087.35 -727.456 2497
-1081.38 -727.456 2497
-1078.86 -729.787 2505
-1072.87 -729.787 2505
-1066.88 -729.787 2505
-1057.5 -727.456 2497
-1051.53 -727.456 2497
-1045.56 -727.456 2497
-1041.25 -728.621 2501
-1035.27 -728.621 2501
-1029.29 -728.621 2501
-1023.31 -728.621 2501
-1017.33 -728.621 2501
-1059.43 -854.186 2932
-1057.8 -858.556 2947
-1050.76 -858.556 2947
-1043.71 -858.556 2947
-1038.77 -860.304 2953
-1040.79 -867.878 2979
-1058.31 -888.563 3050
-1051.01 -888.563 3050
-1049.54 -893.515 3067
-1042.2 -893.515 3067
-1034.87 -893.515 3067
-1027.53 -893.515 3067
-1039.16 -910.121 3124
-1049.52 -925.853 3178
-1064.22 -945.664 3246
-1056.46 -945.664 3246
-1048.69 -945.664 3246
-1042.86 -947.412 3252
-1049.4 -960.522 3297
-1041.52 -960.522 3297
-1065.3 -989.946 3398
-1059.35 -991.986 3405
-1051.21 -991.986 3405
-1043.07 -991.986 3405
-1041.31 -998.104 3426
-1043.67 -1008.3 3461
-1035.39 -1008.3 3461
-1027.11 -1008.3 3461
-1018.84 -1008.3 3461
-1008.52 -1006.26 3454
-1000.26 -1006.26 3454
-989.989 -1004.22 3447
-981.746 -1004.22 3447
-973.503 -1004.22 3447
-965.26 -1004.22 3447
-953.131 -1000.14 3433
-946.848 -1002.18 3440
-938.622 -1002.18 3440
-930.396 -1002.18 3440
-922.17 -1002.18 3440
-913.944 -1002.18 3440
-902.032 -998.104 3426
-893.839 -998.104 3426
-883.837 -996.064 3419
-875.661 -996.064 3419
-867.485 -996.064 3419
-859.309 -996.064 3419
-851.133 -996.064 3419
-842.957 -996.064 3419
-834.782 -996.064 3419
-826.606 -996.064 3419
-816.754 -994.025 3412
-813.572 -1000.14 3433
-807.005 -1002.18 3440
-803.655 -1008.3 3461
-795.378 -1008.3 3461
-793.697 -1016.75 3490
-788.727 -1021.12 3505
-781.904 -1023.16 3512
-773.506 -1023.16 3512
-765.108 -1023.16 3512
-758.433 -1025.49 3520
-756.195 -1033.94 3549
-747.708 -1033.94 3549
-740.888 -1036.27 3557
-732.382 -1036.27 3557
-723.876 -1036.27 3557
-715.37 -1036.27 3557
-709.845 -1040.64 3572
-702.874 -1042.97 3580
-698.774 -1049.67 3603
-690.158 -1049.67 3603
-683.055 -1052 3611
-675.914 -1054.33 3619
-668.735 -1056.66 3627
-661.518 -1058.99 3635
-652.826 -1058.99 3635
-645.374 -1061.03 3642
-638.063 -1063.36 3650
-629.335 -1063.36 3650
-620.607 -1063.36 3650
-617.41 -1072.98 3683
-612.569 -1079.97 3707
-607.776 -1087.25 3732
-598.852 -1087.25 3732
-596.566 -1099.49 3774
-601.241 -1125.12 3862
-592.006 -1125.12 3862
-588.203 -1135.61 3898
-578.882 -1135.61 3898
-569.561 -1135.61 3898
-560.239 -1135.61 3898
-550.918 -1135.61 3898
-535.344 -1122.5 3853
-526.131 -1122.5 3853
-516.917 -1122.5 3853
-507.703 -1122.5 3853
-498.49 -1122.5 3853
-488.133 -1119.88 3844
-478.941 -1119.88 3844
-468.649 -1117.26 3835
-457.442 -1112.31 3818
-452.421 -1122.5 3853
-443.208 -1122.5 3853
-433.994 -1122.5 3853
-422.796 -1117.26 3835
-413.625 -1117.26 3835
-404.454 -1117.26 3835
-394.356 -1114.64 3826
-383.495 -1109.68 3809
-372.716 -1104.73 3792
-363.648 -1104.73 3792
-353.739 -1102.11 3783
-344.693 -1102.11 3783
-334.848 -1099.49 3774
-325.823 -1099.49 3774
-316.798 -1099.49 3774
-305.001 -1089.58 3740
-292.812 -1077.64 3699
-283.966 -1077.64 3699
-275.121 -1077.64 3699
-265.124 -1072.98 3683
-256.316 -1072.98 3683
-246.434 -1068.31 3667
-237.665 -1068.31 3667
-228.334 -1065.69 3658
-218.206 -1058.99 3635
-209.053 -1056.66 3627
-200.38 -1056.66 3627
-191.283 -1054.33 3619
-181.065 -1045.3 3588
-167.437 -1014.71 3483
-159.108 -1014.71 3483
-149.221 -1004.22 3447
-138.974 -989.946 3398
-127.96 -968.096 3323
-119.292 -962.27 3303
-111.393 -962.27 3303
-103.088 -958.482 3290
-95.0465 -956.734 3284
-86.689 -951.199 3265
-78.8814 -951.199 3265
-70.9214 -949.16 3258
-62.7624 -943.625 3239
-54.8131 -940.129 3227
-47.0964 -940.129 3227
-39.3064 -938.381 3221
-31.4176 -932.845 3202
-23.7161 -931.097 3196
-16.0735 -931.097 3196
-8.41511 -929.349 3190
-0.78389 -925.853 3178
6.81567 -925.853 3178
14.3608 -922.357 3166
21.9317 -922.357 3166
29.5025 -922.357 3166
37.0734 -922.357 3166
44.6443 -922.357 3166
52.2151 -922.357 3166
59.786 -922.357 3166
67.4845 -924.105 3172
75.0697 -924.105 3172
82.6549 -924.105 3172
90.2402 -924.105 3172
98.1954 -927.601 3184
105.809 -927.601 3184
113.423 -927.601 3184
121.037 -927.601 3184
128.651 -927.601 3184
136.522 -929.349 3190
144.15 -929.349 3190
151.778 -929.349 3190
159.407 -929.349 3190
167.349 -931.097 3196
174.992 -931.097 3196
182.634 -931.097 3196
190.634 -932.845 3202
198.291 -932.845 3202
206.334 -934.593 3208
214.005 -934.593 3208
221.676 -934.593 3208
229.348 -934.593 3208
237.019 -934.593 3208
245.148 -936.341 3214
252.834 -936.341 3214
260.519 -936.341 3214
268.205 -936.341 3214
275.891 -936.341 3214
281.988 -931.097 3196
288.543 -927.601 3184
296.157 -927.601 3184
304.343 -929.349 3190
311.972 -929.349 3190
319.6 -929.349 3190
326.613 -927.601 3184
334.227 -927.601 3184
341.841 -927.601 3184
349.454 -927.601 3184
356.395 -925.853 3178
363.995 -925.853 3178
371.595 -925.853 3178
378.478 -924.105 3172
385.333 -922.357 3166
392.904 -922.357 3166
400.475 -922.357 3166
408.046 -922.357 3166
415.617 -922.357 3166
423.188 -922.357 3166
430.758 -922.357 3166
437.499 -920.609 3160
445.9 -922.357 3166
453.471 -922.357 3166
461.042 -922.357 3166
468.613 -922.357 3166
476.184 -922.357 3166
483.754 -922.357 3166
491.325 -922.357 3166
497.951 -920.609 3160
505.507 -920.609 3160
514.038 -922.357 3166
521.609 -922.357 3166
529.18 -922.357 3166
536.751 -922.357 3166
544.321 -922.357 3166
551.892 -922.357 3166
559.463 -922.357 3166
567.034 -922.357 3166
573.516 -920.609 3160
581.072 -920.609 3160
588.629 -920.609 3160
596.185 -920.609 3160
603.742 -920.609 3160
612.459 -922.357 3166
627.08 -932.845 3202
634.737 -932.845 3202
652.425 -947.412 3252
660.202 -947.412 3252
667.978 -947.412 3252
2661.87 -1188.34 4079
2671.62 -1188.34 4079
2681.38 -1188.34 4079
2691.13 -1188.34 4079
2681.02 -1179.6 4049
2690.7 -1179.6 4049
2693.72 -1176.69 4039
2703.38 -1176.69 4039
2693.56 -1168.24 4010
2703.14 -1168.24 4010
2699.88 -1162.71 3991
2690.42 -1154.55 3963
2680.82 -1146.39 3935
2690.23 -1146.39 3935
2674.25 -1135.61 3898
2677.38 -1132.99 3889
2668.02 -1125.12 3862
2677.26 -1125.12 3862
2686.49 -1125.12 3862
2689.45 -1122.5 3853
2692.36 -1119.88 3844
2695.22 -1117.26 3835
2717.09 -1122.5 3853
2726.3 -1122.5 3853
2748.3 -1127.75 3871
2757.55 -1127.75 3871
2766.81 -1127.75 3871
2763.16 -1122.5 3853
2728.48 -1104.73 3792
2731.05 -1102.11 3783
2727.78 -1097.16 3766
2736.79 -1097.16 3766
2721 -1087.25 3732
2718.22 -1082.59 3716
2714.63 -1077.64 3699
2723.48 -1077.64 3699
2720.51 -1072.98 3683
2717.46 -1068.31 3667
2713.59 -1063.36 3650
2722.32 -1063.36 3650
2713.83 -1056.66 3627
2722.51 -1056.66 3627
2713.11 -1049.67 3603
2710.39 -1045.3 3588
2718.97 -1045.3 3588
2703.99 -1036.27 3557
2694.95 -1029.57 3534
2698.05 -1027.53 3527
-1155.28 -445.829 1543
-1151.59 -445.829 1543
-1151.62 -447.274 1548
-1159.79 -451.897 1564
-1161.96 -454.208 1572
-1158.2 -454.208 1572
-1160.32 -456.52 1580
-1160.93 -458.253 1586
-1157.14 -458.253 1586
-1160.62 -461.143 1596
-1160.42 -462.587 1601
-1162.37 -464.899 1609
-1158.53 -464.899 1609
-1157.55 -466.055 1613
-1157.27 -467.499 1618
-1156.96 -468.944 1623
-1153.08 -468.944 1623
-1153.45 -470.678 1629
-1154.49 -472.7 1636
-1156.91 -475.301 1645
-1152.98 -475.301 1645
-1159.52 -479.635 1660
-1163.91 -483.102 1672
-1161.99 -483.969 1675
-1157.98 -483.969 1675
-1157.42 -485.413 1680
-1163.02 -489.458 1694
-1161.02 -490.325 1697
-1156.96 -490.325 1697
-1159.02 -492.926 1706
-1161.03 -495.526 1715
-1162.33 -497.838 1723
-1158.21 -497.838 1723
-1155.42 -498.416 1725
-1155.3 -500.149 1731
-1155.82 -502.172 1738
-1151.66 -502.172 1738
-1154.77 -505.35 1749
-1159.14 -509.106 1762
-1154.93 -509.106 1762
-1160.51 -513.44 1777
-1163.42 -516.619 1788
-1164.33 -518.93 1796
-1160.03 -518.93 1796
-1160.89 -521.242 1804
-1159.78 -522.686 1809
-1159.29 -524.42 1815
-1154.94 -524.42 1815
-1155.68 -526.731 1823
-1155.11 -528.465 1829
-1151.99 -529.043 1831
-1147.61 -529.043 1831
-1144.48 -529.621 1833
-1142.59 -530.776 1837
-1143.15 -533.088 1845
-1138.74 -533.088 1845
-1138.63 -535.11 1852
-1140.33 -538 1862
-1138.31 -539.156 1866
-1133.85 -539.156 1866
-1133.02 -540.889 1872
-1144.22 -548.402 1898
-1148.69 -552.736 1913
-1144.11 -552.736 1913
-1150.26 -557.936 1931
-1155.14 -562.559 1947
-1156.98 -565.738 1958
-1152.3 -565.738 1958
-1152.89 -568.338 1967
-1154.02 -571.228 1977
-1151.62 -572.383 1981
-1146.88 -572.383 1981
-1150.8 -576.717 1996
-1154.06 -580.762 2010
-1157.83 -585.096 2025
-1152.99 -585.096 2025
-1158.92 -590.586 2044
-1164.19 -595.787 2062
-1159.26 -595.787 2062
-1154.33 -595.787 2062
-1153.86 -598.099 2070
-1154.46 -600.988 2080
-1149.49 -600.988 2080
-1146.16 -601.855 2083
-1142.28 -602.433 2085
-1141.66 -604.744 2093
-1136.65 -604.744 2093
-1134.35 -606.189 2098
-1129.33 -606.189 2098
-1124.32 -606.189 2098
-1119.3 -606.189 2098
-1117.47 -607.922 2104
-1115.08 -609.367 2109
-1118.46 -613.99 2125
-1113.38 -613.99 2125
-1117.16 -618.902 2142
-1120.35 -623.525 2158
-1123.97 -628.437 2175
-1118.77 -628.437 2175
-1131.49 -638.55 2210
-1136.4 -644.328 2230
-1154.39 -657.62 2276
-1148.95 -657.62 2276
-1149.54 -661.087 2288
-1150.57 -664.843 2301
-1151.53 -668.599 2314
-1146 -668.599 2314
-1144.9 -671.2 2323
-1142.78 -673.222 2330
-1145.02 -677.845 2346
-1139.41 -677.845 2346
-1137.18 -679.868 2353
-1136.36 -682.757 2363
-1130.71 -682.757 2363
-1125.06 -682.757 2363
-1122.73 -684.78 2370
-1119.89 -686.513 2376
-1114.21 -686.513 2376
-1108.52 -686.513 2376
-1102.84 -686.513 2376
-1100.39 -688.536 2383
-1101.13 -692.581 2397
-1095.39 -692.581 2397
-1099.21 -698.649 2418
-1109.25 -708.761 2453
-1108.34 -711.94 2464
-1102.44 -711.94 2464
-1103.23 -716.274 2479
-1103.94 -720.608 2494
-1099.3 -721.475 2497
-1093.32 -721.475 2497
-1090.84 -723.786 2505
-1086.58 -724.942 2509
-1080.58 -724.942 2509
-1074.58 -724.942 2509
-1068.58 -724.942 2509
-1062.58 -724.942 2509
-1056.58 -724.942 2509
-1045.56 -721.475 2497
-1035 -718.296 2486
-1033.61 -721.475 2497
-1027.64 -721.475 2497
-1021.67 -721.475 2497
-1015.7 -721.475 2497
-1059.43 -847.162 2932
-1052.42 -847.162 2932
-1048.97 -850.051 2942
-1041.94 -850.051 2942
-1038.77 -853.23 2953
-1048.13 -866.81 3000
-1060.04 -882.701 3055
-1052.74 -882.701 3055
-1047.48 -884.435 3061
-1040.16 -884.435 3061
-1032.84 -884.435 3061
-1025.52 -884.435 3061
-1025.85 -891.08 3084
-1049.52 -918.24 3178
-1064.22 -937.888 3246
-1056.46 -937.888 3246
-1048.69 -937.888 3246
-1042.86 -939.622 3252
-1045.26 -948.868 3284
-1037.41 -948.868 3284
-1050.25 -967.937 3350
-1054.99 -979.784 3391
-1049.05 -981.806 3398
-1040.92 -981.806 3398
-1041.31 -989.897 3426
-1039.45 -995.964 3447
-1033.3 -997.987 3454
-1025.04 -997.987 3454
-1016.78 -997.987 3454
-1006.47 -995.964 3447
-998.232 -995.964 3447
-987.978 -993.942 3440
-981.746 -995.964 3447
-973.503 -995.964 3447
-965.26 -995.964 3447
-953.131 -991.919 3433
-946.848 -993.942 3440
-938.622 -993.942 3440
-930.396 -993.942 3440
-922.17 -993.942 3440
-913.944 -993.942 3440
-902.032 -989.897 3426
-893.839 -989.897 3426
-883.837 -987.874 3419
-875.661 -987.874 3419
-867.485 -987.874 3419
-859.309 -987.874 3419
-851.133 -987.874 3419
-842.957 -987.874 3419
-834.782 -987.874 3419
-826.606 -987.874 3419
-816.754 -985.852 3412
-813.572 -991.919 3433
-807.005 -993.942 3440
-803.655 -1000.01 3461
-795.378 -1000.01 3461
-793.697 -1008.39 3490
-788.727 -1012.72 3505
-781.904 -1014.75 3512
-773.506 -1014.75 3512
-765.108 -1014.75 3512
-758.433 -1017.06 3520
-756.195 -1025.44 3549
-747.708 -1025.44 3549
-740.888 -1027.75 3557
-732.382 -1027.75 3557
-723.876 -1027.75 3557
-715.37 -1027.75 3557
-709.845 -1032.08 3572
-702.874 -1034.39 3580
-698.774 -1041.04 3603
-690.158 -1041.04 3603
-683.055 -1043.35 3611
-675.914 -1045.66 3619
-668.735 -1047.97 3627
-661.518 -1050.28 3635
-652.826 -1050.28 3635
-645.374 -1052.31 3642
-638.063 -1054.62 3650
-629.335 -1054.62 3650
-620.607 -1054.62 3650
-617.41 -1064.15 3683
-612.569 -1071.09 3707
-607.776 -1078.31 3732
-598.852 -1078.31 3732
-596.566 -1090.45 3774
-601.241 -1115.87 3862
-592.006 -1115.87 3862
-588.203 -1126.27 3898
-578.882 -1126.27 3898
-569.561 -1126.27 3898
-560.239 -1126.27 3898
-550.918 -1126.27 3898
-535.344 -1113.27 3853
-526.131 -1113.27 3853
-516.917 -1113.27 3853
-507.703 -1113.27 3853
-498.49 -1113.27 3853
-488.133 -1110.67 3844
-478.941 -1110.67 3844
-468.649 -1108.07 3835
-457.442 -1103.16 3818
-452.421 -1113.27 3853
-443.208 -1113.27 3853
-433.994 -1113.27 3853
-422.796 -1108.07 3835
-413.625 -1108.07 3835
-404.454 -1108.07 3835
-394.356 -1105.47 3826
-383.495 -1100.56 3809
-372.716 -1095.65 3792
-363.648 -1095.65 3792
-353.739 -1093.05 3783
-344.693 -1093.05 3783
-334.848 -1090.45 3774
-325.823 -1090.45 3774
-316.798 -1090.45 3774
-305.001 -1080.62 3740
-292.812 -1068.78 3699
-283.966 -1068.78 3699
-275.121 -1068.78 3699
-265.124 -1064.15 3683
-256.316 -1064.15 3683
-246.434 -1059.53 3667
-237.665 -1059.53 3667
-228.334 -1056.93 3658
-218.206 -1050.28 3635
-209.053 -1047.97 3627
-200.38 -1047.97 3627
-191.283 -1045.66 3619
-181.065 -1036.7 3588
-167.437 -1006.37 3483
-159.108 -1006.37 3483
-149.221 -995.964 3447
-138.974 -981.806 3398
-127.96 -960.136 3323
-119.292 -954.357 3303
-111.393 -954.357 3303
-103.088 -950.601 3290
-95.0465 -948.868 3284
-86.689 -943.378 3265
-78.8814 -943.378 3265
-70.9214 -941.355 3258
-62.7624 -935.865 3239
-54.8131 -932.398 3227
-47.0964 -932.398 3227
-39.3064 -930.665 3221
-31.4765 -926.908 3208
-23.7607 -925.175 3202
-16.1037 -925.175 3202
-8.43093 -923.441 3196
-0.78537 -919.974 3184
6.81567 -918.24 3178
14.3608 -914.773 3166
21.9317 -914.773 3166
29.5025 -914.773 3166
37.0734 -914.773 3166
44.6443 -914.773 3166
52.3141 -916.507 3172
59.8993 -916.507 3172
67.4845 -916.507 3172
75.0697 -916.507 3172
82.8113 -918.24 3178
90.4108 -918.24 3178
98.1954 -919.974 3184
105.809 -919.974 3184
113.423 -919.974 3184
121.037 -919.974 3184
128.651 -919.974 3184
136.522 -921.708 3190
144.15 -921.708 3190
151.778 -921.708 3190
159.407 -921.708 3190
167.349 -923.441 3196
175.32 -925.175 3202
182.977 -925.175 3202
190.991 -926.908 3208
198.663 -926.908 3208
206.334 -926.908 3208
214.005 -926.908 3208
221.676 -926.908 3208
229.348 -926.908 3208
237.019 -926.908 3208
245.148 -928.642 3214
252.834 -928.642 3214
260.519 -928.642 3214
268.205 -928.642 3214
275.891 -928.642 3214
281.988 -923.441 3196
288.543 -919.974 3184
296.157 -919.974 3184
304.343 -921.708 3190
311.972 -921.708 3190
319.6 -921.708 3190
326.613 -919.974 3184
334.227 -919.974 3184
341.841 -919.974 3184
349.454 -919.974 3184
356.395 -918.24 3178
363.995 -918.24 3178
371.595 -918.24 3178
378.478 -916.507 3172
385.333 -914.773 3166
392.904 -914.773 3166
400.475 -914.773 3166
408.046 -914.773 3166
415.617 -914.773 3166
423.188 -914.773 3166
430.758 -914.773 3166
437.499 -913.039 3160
445.9 -914.773 3166
453.471 -914.773 3166
461.042 -914.773 3166
468.613 -914.773 3166
476.184 -914.773 3166
483.754 -914.773 3166
491.325 -914.773 3166
497.951 -913.039 3160
505.507 -913.039 3160
514.038 -914.773 3166
521.609 -914.773 3166
529.18 -914.773 3166
536.751 -914.773 3166
545.353 -916.507 3172
552.938 -916.507 3172
560.523 -916.507 3172
568.109 -916.507 3172
574.605 -914.773 3166
583.279 -916.507 3172
590.864 -916.507 3172
598.449 -916.507 3172
606.035 -916.507 3172
613.62 -916.507 3172
627.08 -925.175 3202
634.737 -925.175 3202
652.425 -939.622 3252
660.202 -939.622 3252
667.978 -939.622 3252
2661.87 -1178.57 4079
2671.62 -1178.57 4079
2681.38 -1178.57 4079
2684.53 -1175.68 4069
2681.02 -1169.9 4049
2690.7 -1169.9 4049
2693.72 -1167.01 4039
2697.35 -1164.41 4030
2687.51 -1156.04 4001
2697.08 -1156.04 4001
2693.79 -1150.55 3982
2690.42 -1145.06 3963
2680.82 -1136.97 3935
2690.23 -1136.97 3935
2674.25 -1126.27 3898
2677.38 -1123.67 3889
2668.02 -1115.87 3862
2677.26 -1115.87 3862
2686.49 -1115.87 3862
2689.45 -1113.27 3853
2692.36 -1110.67 3844
2695.22 -1108.07 3835
2717.09 -1113.27 3853
2726.3 -1113.27 3853
2748.3 -1118.47 3871
2757.55 -1118.47 3871
2766.81 -1118.47 3871
2763.16 -1113.27 3853
2728.48 -1095.65 3792
2731.05 -1093.05 3783
2727.78 -1088.14 3766
2736.79 -1088.14 3766
2721 -1078.31 3732
2718.22 -1073.69 3716
2714.63 -1068.78 3699
2723.48 -1068.78 3699
2720.51 -1064.15 3683
2717.46 -1059.53 3667
2713.59 -1054.62 3650
2722.32 -1054.62 3650
2713.83 -1047.97 3627
2716.5 -1045.66 3619
2713.11 -1041.04 3603
2710.39 -1036.7 3588
2718.97 -1036.7 3588
2703.99 -1027.75 3557
2694.95 -1021.1 3534
2698.05 -1019.08 3527
-1155.28 -442.133 1543
-1151.59 -442.133 1543
-1153.11 -444.139 1550
-1161.27 -448.723 1566
-1161.96 -450.443 1572
-1158.2 -450.443 1572
-1161.05 -453.021 1581
-1160.93 -454.454 1586
-1157.14 -454.454 1586
-1160.62 -457.319 1596
-1160.42 -458.752 1601
-1162.37 -461.045 1609
-1158.53 -461.045 1609
-1157.55 -462.191 1613
-1158.7 -464.196 1620
-1156.96 -465.056 1623
-1153.08 -465.056 1623
-1153.45 -466.775 1629
-1154.49 -468.781 1636
-1156.91 -471.36 1645
-1152.98 -471.36 1645
-1159.52 -475.658 1660
-1163.91 -479.097 1672
-1161.99 -479.956 1675
-1157.98 -479.956 1675
-1157.42 -481.389 1680
-1163.02 -485.401 1694
-1161.02 -486.26 1697
-1156.96 -486.26 1697
-1159.02 -488.839 1706
-1161.03 -491.418 1715
-1162.33 -493.71 1723
-1158.21 -493.71 1723
-1155.42 -494.283 1725
-1155.3 -496.003 1731
-1155.82 -498.008 1738
-1151.66 -498.008 1738
-1154.77 -501.16 1749
-1159.14 -504.885 1762
-1159.52 -506.891 1769
-1160.51 -509.183 1777
-1163.42 -512.335 1788
-1164.33 -514.628 1796
-1160.03 -514.628 1796
-1160.89 -516.92 1804
-1159.78 -518.353 1809
-1159.29 -520.072 1815
-1154.94 -520.072 1815
-1155.68 -522.364 1823
-1155.11 -524.084 1829
-1151.99 -524.657 1831
-1147.61 -524.657 1831
-1144.48 -525.23 1833
-1142.59 -526.376 1837
-1143.15 -528.668 1845
-1138.74 -528.668 1845
-1138.63 -530.674 1852
-1140.33 -533.539 1862
-1138.31 -534.686 1866
-1133.85 -534.686 1866
-1133.02 -536.405 1872
-1146.63 -545.001 1902
-1149.89 -548.726 1915
-1145.31 -548.726 1915
-1151.45 -553.884 1933
-1157.51 -559.042 1951
-1156.98 -561.047 1958
-1152.3 -561.047 1958
-1152.89 -563.626 1967
-1154.02 -566.492 1977
-1151.62 -567.638 1981
-1146.88 -567.638 1981
-1150.8 -571.936 1996
-1154.06 -575.947 2010
-1157.83 -580.246 2025
-1152.99 -580.246 2025
-1158.92 -585.69 2044
-1164.19 -590.848 2062
-1159.26 -590.848 2062
-1154.33 -590.848 2062
-1153.86 -593.14 2070
-1154.46 -596.005 2080
-1149.49 -596.005 2080
-1146.16 -596.865 2083
-1143.92 -598.298 2088
-1141.66 -599.73 2093
-1136.65 -599.73 2093
-1134.35 -601.163 2098
-1129.33 -601.163 2098
-1127.53 -602.882 2104
-1122.5 -602.882 2104
-1117.47 -602.882 2104
-1116.67 -605.175 2112
-1118.46 -608.9 2125
-1113.38 -608.9 2125
-1117.16 -613.771 2142
-1120.35 -618.356 2158
-1125.52 -624.086 2178
-1120.31 -624.086 2178
-1131.49 -633.256 2210
-1136.4 -638.987 2230
-1154.39 -652.167 2276
-1148.95 -652.167 2276
-1149.54 -655.606 2288
-1150.57 -659.331 2301
-1151.53 -663.056 2314
-1146 -663.056 2314
-1144.9 -665.635 2323
-1142.78 -667.641 2330
-1145.02 -672.225 2346
-1139.41 -672.225 2346
-1137.18 -674.231 2353
-1136.36 -677.096 2363
-1130.71 -677.096 2363
-1125.06 -677.096 2363
-1122.73 -679.102 2370
-1119.89 -680.821 2376
-1114.21 -680.821 2376
-1108.52 -680.821 2376
-1102.84 -680.821 2376
-1100.39 -682.827 2383
-1101.13 -686.839 2397
-1095.39 -686.839 2397
-1099.21 -692.856 2418
-1109.25 -702.885 2453
-1108.34 -706.037 2464
-1102.44 -706.037 2464
-1103.23 -710.335 2479
-1103.94 -714.633 2494
-1099.3 -715.493 2497
-1093.32 -715.493 2497
-1092.58 -718.931 2509
-1086.58 -718.931 2509
-1083.59 -720.937 2516
-1077.58 -720.937 2516
-1073.26 -722.083 2520
-1067.24 -722.083 2520
-1061.21 -722.083 2520
-1053.51 -720.937 2516
-1041.25 -716.639 2501
-1041.48 -720.937 2516
-1035.46 -720.937 2516
-1029.45 -720.937 2516
-1020.58 -718.931 2509
-1059.43 -840.138 2932
-1052.42 -840.138 2932
-1048.97 -843.004 2942
-1041.94 -843.004 2942
-1038.77 -846.156 2953
-1048.13 -859.623 3000
-1060.04 -875.383 3055
-1052.74 -875.383 3055
-1047.48 -877.102 3061
-1040.16 -877.102 3061
-1032.84 -877.102 3061
-1025.52 -877.102 3061
-1025.85 -883.693 3084
-1049.52 -910.627 3178
-1064.22 -930.112 3246
-1056.46 -930.112 3246
-1048.69 -930.112 3246
-1042.86 -931.831 3252
-1045.26 -941.001 3284
-1037.41 -941.001 3284
-1050.25 -959.912 3350
-1054.99 -971.661 3391
-1049.05 -973.666 3398
-1040.92 -973.666 3398
-1041.31 -981.69 3426
-1039.45 -987.707 3447
-1033.3 -989.713 3454
-1025.04 -989.713 3454
-1016.78 -989.713 3454
-1006.47 -987.707 3447
-998.232 -987.707 3447
-987.978 -985.701 3440
-979.752 -985.701 3440
-971.526 -985.701 3440
-963.3 -985.701 3440
-951.187 -981.69 3426
-944.921 -983.695 3433
-938.622 -985.701 3440
-930.396 -985.701 3440
-922.17 -985.701 3440
-913.944 -985.701 3440
-902.032 -981.69 3426
-893.839 -981.69 3426
-883.837 -979.684 3419
-875.661 -979.684 3419
-865.709 -977.678 3412
-857.55 -977.678 3412
-849.391 -977.678 3412
-841.232 -977.678 3412
-833.072 -977.678 3412
-824.913 -977.678 3412
-816.754 -977.678 3412
-813.572 -983.695 3433
-805.362 -983.695 3433
-800.404 -987.707 3447
-792.161 -987.707 3447
-790.513 -996.017 3476
-785.352 -1000.03 3490
-778.565 -1002.03 3497
-770.202 -1002.03 3497
-763.583 -1004.33 3505
-756.709 -1006.33 3512
-756.195 -1016.93 3549
-747.708 -1016.93 3549
-739.221 -1016.93 3549
-730.735 -1016.93 3549
-723.876 -1019.23 3557
-715.37 -1019.23 3557
-706.864 -1019.23 3557
-699.929 -1021.52 3565
-694.313 -1025.82 3580
-685.752 -1025.82 3580
-678.705 -1028.11 3588
-672.926 -1032.41 3603
-664.31 -1032.41 3603
-658.606 -1036.99 3619
-649.952 -1036.99 3619
-642.716 -1039.28 3627
-635.441 -1041.58 3635
-626.748 -1041.58 3635
-618.056 -1041.58 3635
-611.878 -1045.87 3650
-608.603 -1055.33 3683
-603.704 -1062.21 3707
-594.84 -1062.21 3707
-589.927 -1069.37 3732
-587.541 -1081.41 3774
-592.006 -1106.62 3862
-582.771 -1106.62 3862
-578.882 -1116.94 3898
-569.561 -1116.94 3898
-560.239 -1116.94 3898
-545.83 -1106.62 3862
-530.482 -1094.01 3818
-521.352 -1094.01 3818
-515.71 -1101.46 3844
-506.517 -1101.46 3844
-497.325 -1101.46 3844
-486.99 -1098.88 3835
-477.82 -1098.88 3835
-465.472 -1091.43 3809
-455.285 -1088.86 3800
-446.198 -1088.86 3800
-437.111 -1088.86 3800
-428.024 -1088.86 3800
-417.063 -1083.98 3783
-407.046 -1081.41 3774
-398.021 -1081.41 3774
-388.996 -1081.41 3774
-377.455 -1074.24 3749
-366.032 -1067.08 3724
-357.127 -1067.08 3724
-347.474 -1064.79 3716
-336.31 -1057.62 3691
-327.484 -1057.62 3691
-316.585 -1050.75 3667
-307.816 -1050.75 3667
-298.313 -1048.17 3658
-287.112 -1039.28 3627
-277.825 -1036.99 3619
-269.171 -1036.99 3619
-260.516 -1036.99 3619
-251.862 -1036.99 3619
-241.595 -1030.11 3595
-232.999 -1030.11 3595
-224.402 -1030.11 3595
-215.385 -1028.11 3588
-206.805 -1028.11 3588
-198.225 -1028.11 3588
-189.645 -1028.11 3588
-177.23 -1006.33 3512
-166.716 -993.724 3468
-158.423 -993.724 3468
-147.1 -973.666 3398
-137.543 -963.638 3363
-127.729 -950.457 3317
-118.822 -942.72 3290
-110.955 -942.72 3290
-102.9 -941.001 3284
-94.8729 -939.281 3278
-86.689 -935.556 3265
-78.8814 -935.556 3265
-70.7908 -931.831 3252
-62.7624 -928.106 3239
-54.8131 -924.668 3227
-47.0964 -924.668 3227
-39.3064 -922.949 3221
-31.4765 -919.224 3208
-23.7607 -917.504 3202
-16.1037 -917.504 3202
-8.43093 -915.785 3196
-0.78537 -912.347 3184
6.81567 -910.627 3178
14.3608 -907.189 3166
21.9317 -907.189 3166
29.5025 -907.189 3166
37.0734 -907.189 3166
44.6443 -907.189 3166
52.3141 -908.908 3172
59.8993 -908.908 3172
67.4845 -908.908 3172
75.0697 -908.908 3172
82.8113 -910.627 3178
90.4108 -910.627 3178
98.1954 -912.347 3184
105.809 -912.347 3184
113.423 -912.347 3184
121.037 -912.347 3184
128.651 -912.347 3184
136.522 -914.066 3190
144.15 -914.066 3190
151.778 -914.066 3190
159.407 -914.066 3190
167.349 -915.785 3196
175.32 -917.504 3202
182.977 -917.504 3202
190.991 -919.224 3208
198.663 -919.224 3208
206.334 -919.224 3208
214.005 -919.224 3208
221.676 -919.224 3208
229.348 -919.224 3208
237.019 -919.224 3208
245.148 -920.943 3214
252.834 -920.943 3214
260.519 -920.943 3214
268.205 -920.943 3214
275.891 -920.943 3214
281.988 -915.785 3196
287.999 -910.627 3178
296.157 -912.347 3184
303.771 -912.347 3184
311.385 -912.347 3184
318.999 -912.347 3184
326.613 -912.347 3184
334.227 -912.347 3184
341.841 -912.347 3184
348.796 -910.627 3178
355.723 -908.908 3172
363.308 -908.908 3172
370.893 -908.908 3172
377.762 -907.189 3166
384.603 -905.47 3160
392.159 -905.47 3160
399.716 -905.47 3160
407.273 -905.47 3160
414.829 -905.47 3160
421.584 -903.75 3154
429.126 -903.75 3154
436.668 -903.75 3154
445.055 -905.47 3160
453.471 -907.189 3166
461.042 -907.189 3166
468.613 -907.189 3166
475.281 -905.47 3160
482.838 -905.47 3160
490.394 -905.47 3160
497.005 -903.75 3154
505.507 -905.47 3160
513.064 -905.47 3160
520.62 -905.47 3160
528.177 -905.47 3160
536.751 -907.189 3166
545.353 -908.908 3172
552.938 -908.908 3172
560.523 -908.908 3172
568.109 -908.908 3172
574.605 -907.189 3166
583.279 -908.908 3172
590.864 -908.908 3172
598.449 -908.908 3172
606.035 -908.908 3172
613.62 -908.908 3172
623.555 -912.347 3184
631.169 -912.347 3184
638.783 -912.347 3184
2661.87 -1168.8 4079
2671.62 -1168.8 4079
2681.38 -1168.8 4079
2684.53 -1165.94 4069
2681.02 -1160.2 4049
2690.7 -1160.2 4049
2687.72 -1154.76 4030
2697.35 -1154.76 4030
2687.51 -1146.45 4001
2697.08 -1146.45 4001
2693.79 -1141.01 3982
2690.42 -1135.56 3963
2680.82 -1127.54 3935
