ply
format ascii 1.0
comment File generated
element vertex 2118
property float x
property float y
property float z
end_header
2618.43 -1934.2 3627
2615.51 -1925.67 3611
2624.15 -1925.67 3611
2610.18 -1909.14 3580
2612.89 -1904.87 3572
2616.29 -1901.14 3565
2624.82 -1901.14 3565
2627.44 -1896.87 3557
2635.94 -1896.87 3557
2633.29 -1888.87 3542
2635.8 -1884.61 3534
2644.25 -1884.61 3534
2642.19 -1877.14 3520
2622.75 -1857.41 3483
2631.08 -1857.41 3483
2639.41 -1857.41 3483
2647.73 -1857.41 3483
2644.62 -1849.41 3468
2642.21 -1841.94 3454
-1178.49 -835.61 1574
-1174.73 -835.61 1574
-1171.71 -836.141 1575
-1169.43 -837.202 1577
-1166.39 -837.733 1578
-1162.62 -837.733 1578
-1171.33 -846.758 1595
-1173.37 -851.005 1603
-1169.54 -851.005 1603
-1167.89 -852.598 1606
-1166.22 -854.191 1609
-1165.26 -856.314 1613
-1161.41 -856.314 1613
-1158.98 -857.376 1615
-1164.42 -864.277 1628
-1164.81 -867.463 1634
-1160.9 -867.463 1634
-1159.11 -869.055 1637
-1157.32 -870.648 1640
-1166.05 -880.204 1658
-1162.09 -880.204 1658
-1173.49 -891.883 1680
-1170.87 -892.945 1682
-1167.54 -893.476 1683
-1163.51 -893.476 1683
-1165.69 -898.254 1692
-1166.45 -901.97 1699
-1169.23 -907.279 1709
-1165.14 -907.279 1709
-1162.41 -908.341 1711
-1159.68 -909.402 1713
-1157.6 -910.995 1716
-1153.5 -910.995 1716
-1154.09 -914.711 1723
-1153.97 -917.897 1729
-1157.82 -924.267 1741
-1153.65 -924.267 1741
-1154.77 -928.514 1749
-1155.19 -932.23 1756
-1155.58 -935.947 1763
-1151.37 -935.947 1763
-1162.12 -948.157 1786
-1170.16 -958.244 1805
-1165.85 -958.244 1805
-1162.82 -959.305 1807
-1162.34 -962.491 1813
-1161.84 -965.676 1819
-1157.49 -965.676 1819
-1156.94 -968.861 1825
-1161.42 -976.294 1839
-1158.28 -977.355 1841
-1153.88 -977.355 1841
-1153.22 -980.541 1847
-1153.16 -984.257 1854
-1149.97 -985.319 1856
-1145.53 -985.319 1856
-1144.78 -988.504 1862
-1141.55 -989.566 1864
-1151.12 -1001.78 1887
-1146.61 -1001.78 1887
-1146.34 -1005.49 1894
-1153.26 -1015.58 1913
-1158.29 -1024.07 1929
-1153.68 -1024.07 1929
-1150.26 -1025.13 1931
-1156.32 -1034.69 1949
-1154.02 -1036.81 1953
-1149.35 -1036.81 1953
-1147.61 -1039.47 1958
-1144.1 -1040.53 1960
-1142.32 -1043.18 1965
-1137.62 -1043.18 1965
-1134.08 -1044.25 1967
-1131.09 -1045.84 1970
-1128.67 -1047.96 1974
-1123.95 -1047.96 1974
-1122.06 -1050.62 1979
-1121.28 -1054.33 1986
-1117.66 -1055.4 1988
-1112.91 -1055.4 1988
-1113.73 -1060.7 1998
-1121.16 -1072.38 2020
-1122.96 -1078.75 2032
-1118.1 -1078.75 2032
-1117.08 -1082.47 2039
-1123.66 -1093.62 2060
-1122.53 -1097.33 2067
-1117.59 -1097.33 2067
-1112.65 -1097.33 2067
-1114.67 -1104.24 2080
-1112.36 -1106.89 2085
-1107.38 -1106.89 2085
-1106.62 -1111.14 2093
-1111.62 -1121.22 2112
-1106.57 -1121.22 2112
-1109.86 -1129.72 2128
-1121.9 -1147.24 2161
-1138.96 -1170.07 2204
-1133.69 -1170.07 2204
-1143.26 -1185.46 2233
-1137.92 -1185.46 2233
-1138.67 -1191.83 2245
-1133.3 -1191.83 2245
-1143.51 -1208.29 2276
-1146.07 -1216.78 2292
-1151.53 -1228.46 2314
-1146 -1228.46 2314
-1148.35 -1236.96 2330
-1147.69 -1242.27 2340
-1148.43 -1249.17 2353
-1142.81 -1249.17 2353
-1146.85 -1259.79 2373
-1147.9 -1267.22 2387
-1150.33 -1276.24 2404
-1144.58 -1276.24 2404
-1143.57 -1281.55 2414
-1147.7 -1292.7 2435
-1148.91 -1300.66 2450
-1143.05 -1300.66 2450
-1142.3 -1306.5 2461
-1142.88 -1313.94 2475
-1138.8 -1316.06 2479
-1132.87 -1316.06 2479
-1126.94 -1316.06 2479
-1121.01 -1316.06 2479
-1115.08 -1316.06 2479
-1109.16 -1316.06 2479
-1106.34 -1319.78 2486
-1110.58 -1331.99 2509
-1107.66 -1335.7 2516
-1101.64 -1335.7 2516
-1097.37 -1337.82 2520
-1093.08 -1339.95 2524
-1095.22 -1350.04 2543
-1089.14 -1350.04 2543
-1083.06 -1350.04 2543
-1076.98 -1350.04 2543
-1070.9 -1350.04 2543
-1112.51 -1451.96 2735
-1118.91 -1468.95 2767
-1112.29 -1468.95 2767
-1107.28 -1471.08 2771
-1102.64 -1473.73 2776
-1096 -1473.73 2776
-1089.36 -1473.73 2776
-1086.23 -1478.51 2785
-1086.94 -1488.6 2804
-1082.16 -1491.25 2809
-1075.44 -1491.25 2809
-1068.72 -1491.25 2809
-1058.23 -1485.94 2799
-1051.53 -1485.94 2799
-1042.97 -1483.29 2794
-1024.42 -1466.3 2762
-1017.82 -1466.3 2762
-1011.21 -1466.3 2762
-1002.79 -1463.64 2757
-989.692 -1454.09 2739
-973.81 -1440.29 2713
-1078.29 -1868.71 3520
-1069.88 -1868.71 3520
-1061.46 -1868.71 3520
-1053.04 -1868.71 3520
-1042.25 -1864.46 3512
-1038.27 -1872.42 3527
-1034.21 -1880.39 3542
-1027.77 -1884.1 3549
-1019.28 -1884.1 3549
-1013.08 -1888.35 3557
-1008.81 -1896.31 3572
-1004.74 -1904.81 3588
-996.164 -1904.81 3588
-989.511 -1908.52 3595
-983.097 -1912.77 3603
-976.645 -1917.02 3611
-968.01 -1917.02 3611
-969.737 -1937.72 3650
-965.484 -1946.75 3667
-956.716 -1946.75 3667
-947.947 -1946.75 3667
-934.824 -1937.72 3650
-591.066 -1379.76 2599
-584.851 -1379.76 2599
-579.526 -1381.89 2603
-573.302 -1381.89 2603
-567.077 -1381.89 2603
-560.853 -1381.89 2603
-553.776 -1379.76 2599
-547.561 -1379.76 2599
-543.845 -1386.14 2611
-537.602 -1386.14 2611
-531.358 -1386.14 2611
-525.114 -1386.14 2611
-518.87 -1386.14 2611
-512.627 -1386.14 2611
-506.383 -1386.14 2611
-500.139 -1386.14 2611
-493.896 -1386.14 2611
-488.399 -1388.26 2615
-482.146 -1388.26 2615
-476.621 -1390.38 2619
-470.358 -1390.38 2619
-464.095 -1390.38 2619
-457.832 -1390.38 2619
-452.949 -1394.63 2627
-446.667 -1394.63 2627
-441.055 -1396.75 2631
-434.764 -1396.75 2631
-428.472 -1396.75 2631
-422.181 -1396.75 2631
-415.889 -1396.75 2631
-409.598 -1396.75 2631
-402.693 -1394.63 2627
-396.411 -1394.63 2627
-390.129 -1394.63 2627
-383.263 -1392.51 2623
-376.415 -1390.38 2619
-370.718 -1392.51 2623
-365.001 -1394.63 2627
-358.719 -1394.63 2627
-352.437 -1394.63 2627
-346.155 -1394.63 2627
-339.873 -1394.63 2627
-332.576 -1390.38 2619
-325.316 -1386.14 2611
-318.095 -1381.89 2603
-311.87 -1381.89 2603
-304.589 -1377.11 2594
-297.466 -1372.86 2586
-291.732 -1374.99 2590
-285.539 -1374.99 2590
-279.345 -1374.99 2590
-273.152 -1374.99 2590
-266.546 -1372.86 2586
-260.362 -1372.86 2586
-254.178 -1372.86 2586
-247.994 -1372.86 2586
-241.81 -1372.86 2586
-235.262 -1370.74 2582
-229.088 -1370.74 2582
-222.913 -1370.74 2582
-216.403 -1368.62 2578
-209.668 -1364.9 2571
-203.52 -1364.9 2571
-197.064 -1362.78 2567
-190.926 -1362.78 2567
-185.075 -1364.9 2571
-178.927 -1364.9 2571
-172.779 -1364.9 2571
-166.826 -1366.49 2574
-160.67 -1366.49 2574
-154.515 -1366.49 2574
-148.187 -1364.9 2571
-142.039 -1364.9 2571
-136.05 -1366.49 2574
-129.894 -1366.49 2574
-123.739 -1366.49 2574
-117.584 -1366.49 2574
-111.429 -1366.49 2574
-105.274 -1366.49 2574
-99.1183 -1366.49 2574
-92.9631 -1366.49 2574
-86.8079 -1366.49 2574
-80.4334 -1362.78 2567
-74.2949 -1362.78 2567
-68.1564 -1362.78 2567
-62.0179 -1362.78 2567
-55.8795 -1362.78 2567
-49.741 -1362.78 2567
-43.5346 -1360.65 2563
-37.3473 -1358.53 2559
-31.2279 -1358.53 2559
-25.1086 -1358.53 2559
-18.9596 -1356.41 2555
-12.8297 -1354.28 2551
-6.72945 -1354.28 2551
-0.629234 -1354.28 2551
5.4624 -1352.16 2547
11.5168 -1347.91 2539
17.5883 -1347.91 2539
23.6598 -1347.91 2539
29.6845 -1345.79 2535
35.7041 -1344.2 2532
41.7589 -1344.2 2532
47.8137 -1344.2 2532
53.8685 -1344.2 2532
59.8286 -1342.07 2528
65.6653 -1337.82 2520
71.5776 -1335.7 2516
77.5941 -1335.7 2516
83.4777 -1333.58 2512
89.6272 -1335.7 2516
95.6437 -1335.7 2516
101.66 -1335.7 2516
107.677 -1335.7 2516
113.693 -1335.7 2516
119.519 -1333.58 2512
125.526 -1333.58 2512
131.376 -1331.99 2509
137.376 -1331.99 2509
143.376 -1331.99 2509
149.376 -1331.99 2509
155.128 -1329.86 2505
161.118 -1329.86 2505
2652.12 -2165.47 4079
2661.87 -2165.47 4079
2671.62 -2165.47 4079
2636.02 -2128.84 4010
2652.21 -2134.15 4020
2661.82 -2134.15 4020
2671.43 -2134.15 4020
2681.05 -2134.15 4020
2683.97 -2128.84 4010
2674.75 -2113.98 3982
2684.27 -2113.98 3982
2687.03 -2108.67 3972
2690.42 -2103.89 3963
2686.95 -2093.8 3944
2696.38 -2093.8 3944
2692.77 -2083.72 3925
2689.77 -2074.16 3907
2699.11 -2074.16 3907
2689.74 -2059.83 3880
2699.02 -2059.83 3880
2689.45 -2045.49 3853
2661.54 -2017.36 3800
2658.68 -2008.33 3783
2667.73 -2008.33 3783
2658.37 -1994.53 3757
2655.29 -1985.5 3740
2640.72 -1967.98 3707
2632.44 -1955.24 3683
2641.24 -1955.24 3683
2609.76 -1925.51 3627
2612.65 -1921.27 3619
2615.51 -1917.02 3611
2624.15 -1917.02 3611
2610.18 -1900.56 3580
2612.89 -1896.31 3572
2610.42 -1888.35 3557
2618.93 -1888.35 3557
2627.44 -1888.35 3557
2630.01 -1884.1 3549
2633.29 -1880.39 3542
2635.8 -1876.14 3534
2644.25 -1876.14 3534
2636.19 -1864.46 3512
2622.75 -1849.07 3483
2631.08 -1849.07 3483
2639.41 -1849.07 3483
2642.41 -1845.35 3476
2644.62 -1841.1 3468
2642.21 -1833.67 3454
-1178.49 -831.839 1574
-1174.73 -831.839 1574
-1171.71 -832.368 1575
-1169.43 -833.425 1577
-1166.39 -833.953 1578
-1162.62 -833.953 1578
-1169.86 -841.88 1593
-1171.91 -846.108 1601
-1169.54 -847.165 1603
-1165.71 -847.165 1603
-1164.05 -848.751 1606
-1164.54 -851.922 1612
-1160.69 -851.922 1612
-1157.55 -852.45 1613
-1161.56 -858.264 1624
-1161.24 -860.906 1629
-1157.35 -860.906 1629
-1158.41 -864.605 1636
-1157.32 -866.719 1640
-1163.94 -874.647 1655
-1159.99 -874.647 1655
-1171.4 -886.273 1677
-1169.47 -887.859 1680
-1167.54 -889.444 1683
-1163.51 -889.444 1683
-1165.69 -894.201 1692
-1166.45 -897.9 1699
-1168.54 -902.656 1708
-1164.46 -902.656 1708
-1162.41 -904.242 1711
-1159.68 -905.299 1713
-1157.6 -906.884 1716
-1153.5 -906.884 1716
-1154.09 -910.584 1723
-1152.63 -912.698 1727
-1153.16 -916.397 1734
-1149.01 -916.397 1734
-1152.13 -922.211 1745
-1152.56 -925.91 1752
-1155.58 -931.723 1763
-1151.37 -931.723 1763
-1162.12 -943.879 1786
-1164.33 -949.163 1796
-1160.03 -949.163 1796
-1161.53 -953.92 1805
-1161.06 -957.091 1811
-1161.84 -961.319 1819
-1157.49 -961.319 1819
-1156.94 -964.49 1825
-1158.9 -969.774 1835
-1157.02 -971.888 1839
-1152.63 -971.888 1839
-1151.98 -975.059 1845
-1151.92 -978.759 1852
-1148.73 -979.816 1854
-1144.29 -979.816 1854
-1143.55 -982.987 1860
-1141.55 -985.101 1864
-1149.9 -996.199 1885
-1145.4 -996.199 1885
-1146.34 -1000.96 1894
-1153.26 -1011 1913
-1158.29 -1019.45 1929
-1153.68 -1019.45 1929
-1150.26 -1020.51 1931
-1156.32 -1030.02 1949
-1154.02 -1032.14 1953
-1149.35 -1032.14 1953
-1147.61 -1034.78 1958
-1144.1 -1035.84 1960
-1142.32 -1038.48 1965
-1137.62 -1038.48 1965
-1134.08 -1039.53 1967
-1131.09 -1041.12 1970
-1128.67 -1043.23 1974
-1123.95 -1043.23 1974
-1122.06 -1045.88 1979
-1121.28 -1049.58 1986
-1117.66 -1050.63 1988
-1112.91 -1050.63 1988
-1113.73 -1055.92 1998
-1121.16 -1067.54 2020
-1120.2 -1071.24 2027
-1115.35 -1071.24 2027
-1113.24 -1073.89 2032
-1114.93 -1080.23 2044
-1118.73 -1088.68 2060
-1113.8 -1088.68 2060
-1111.57 -1091.33 2065
-1107.7 -1092.38 2067
-1109.7 -1099.25 2080
-1104.72 -1099.25 2080
-1103.98 -1103.48 2088
-1105.83 -1110.35 2101
-1100.8 -1110.35 2101
-1109.86 -1124.62 2128
-1117.75 -1137.83 2153
-1138.96 -1164.79 2204
-1133.69 -1164.79 2204
-1143.26 -1180.11 2233
-1153.72 -1196.5 2264
-1155.92 -1204.42 2279
-1150.47 -1204.42 2279
-1149.54 -1209.18 2288
-1152.07 -1217.64 2304
-1151.53 -1222.92 2314
-1146 -1222.92 2314
-1148.35 -1231.38 2330
-1149.16 -1238.25 2343
-1148.43 -1243.53 2353
-1142.81 -1243.53 2353
-1146.85 -1254.1 2373
-1147.9 -1261.5 2387
-1150.33 -1270.48 2404
-1144.58 -1270.48 2404
-1143.57 -1275.77 2414
-1147.7 -1286.87 2435
-1148.91 -1294.79 2450
-1143.05 -1294.79 2450
-1142.3 -1300.61 2461
-1141.03 -1305.89 2471
-1136.96 -1308.01 2475
-1131.04 -1308.01 2475
-1125.12 -1308.01 2475
-1121.01 -1310.12 2479
-1115.08 -1310.12 2479
-1109.16 -1310.12 2479
-1105.01 -1312.23 2483
-1108.81 -1323.86 2505
-1105.9 -1327.56 2512
-1099.89 -1327.56 2512
-1093.89 -1327.56 2512
-1089.61 -1329.67 2516
-1088.76 -1336.02 2528
-1082.72 -1336.02 2528
-1076.67 -1336.02 2528
-1068.93 -1333.9 2524
-1062.9 -1333.9 2524
-1112.51 -1445.41 2735
-1118.91 -1462.32 2767
-1112.29 -1462.32 2767
-1107.28 -1464.44 2771
-1102.64 -1467.08 2776
-1096 -1467.08 2776
-1089.36 -1467.08 2776
-1086.23 -1471.84 2785
-1086.94 -1481.88 2804
-1094.87 -1501.96 2842
-1088.07 -1501.96 2842
-1081.28 -1501.96 2842
-1074.48 -1501.96 2842
-1067.69 -1501.96 2842
-1042.97 -1476.59 2794
-1024.42 -1459.68 2762
-1017.82 -1459.68 2762
-1011.21 -1459.68 2762
-992.969 -1442.77 2730
-980.298 -1433.79 2713
-973.81 -1433.79 2713
-1080.44 -1863.98 3527
-1072 -1863.98 3527
-1063.57 -1863.98 3527
-1053.04 -1860.28 3520
-1044.62 -1860.28 3520
-1033.85 -1856.05 3512
-1031.88 -1867.67 3534
-1025.74 -1871.9 3542
-1017.27 -1871.9 3542
-1010.8 -1875.6 3549
-1008.81 -1887.76 3572
-1004.74 -1896.21 3588
-996.164 -1896.21 3588
-991.713 -1904.14 3603
-985.28 -1908.37 3611
-978.809 -1912.6 3619
-970.155 -1912.6 3619
-969.737 -1928.98 3650
-965.484 -1937.96 3667
-958.803 -1942.19 3675
-950.015 -1942.19 3675
-945.325 -1950.65 3691
-938.528 -1954.88 3699
-937.977 -1972.32 3732
-929.052 -1972.32 3732
-922.1 -1976.54 3740
-913.157 -1976.54 3740
-904.213 -1976.54 3740
-895.27 -1976.54 3740
-585.38 -1360.33 2574
-579.225 -1360.33 2574
-577.523 -1370.9 2594
-571.32 -1370.9 2594
-565.117 -1370.9 2594
-558.052 -1368.78 2590
-552.71 -1370.9 2594
-546.507 -1370.9 2594
-542.179 -1375.65 2603
-535.954 -1375.65 2603
-529.73 -1375.65 2603
-524.31 -1377.77 2607
-518.076 -1377.77 2607
-511.841 -1377.77 2607
-505.607 -1377.77 2607
-499.373 -1377.77 2607
-493.139 -1377.77 2607
-488.399 -1381.99 2615
-482.146 -1381.99 2615
-475.893 -1381.99 2615
-469.639 -1381.99 2615
-463.386 -1381.99 2615
-457.133 -1381.99 2615
-452.949 -1388.34 2627
-446.667 -1388.34 2627
-441.055 -1390.45 2631
-434.764 -1390.45 2631
-428.472 -1390.45 2631
-422.181 -1390.45 2631
-415.889 -1390.45 2631
-409.598 -1390.45 2631
-403.306 -1390.45 2631
-396.411 -1388.34 2627
-390.129 -1388.34 2627
-383.263 -1386.22 2623
-376.99 -1386.22 2623
-371.283 -1388.34 2627
-365.001 -1388.34 2627
-358.719 -1388.34 2627
-352.437 -1388.34 2627
-346.155 -1388.34 2627
-339.873 -1388.34 2627
-332.576 -1384.11 2619
-325.814 -1381.99 2615
-319.072 -1379.88 2611
-312.829 -1379.88 2611
-305.646 -1375.65 2603
-298.386 -1370.9 2594
-291.732 -1368.78 2590
-286.531 -1373.54 2599
-280.316 -1373.54 2599
-274.101 -1373.54 2599
-266.958 -1368.78 2590
-260.765 -1368.78 2590
-254.964 -1370.9 2594
-248.761 -1370.9 2594
-242.558 -1370.9 2594
-235.626 -1366.67 2586
-229.443 -1366.67 2586
-223.259 -1366.67 2586
-216.739 -1364.55 2582
-210.238 -1362.44 2578
-204.074 -1362.44 2578
-197.371 -1358.74 2571
-191.223 -1358.74 2571
-185.291 -1360.33 2574
-179.136 -1360.33 2574
-172.981 -1360.33 2574
-166.826 -1360.33 2574
-160.67 -1360.33 2574
-154.515 -1360.33 2574
-148.36 -1360.33 2574
-142.039 -1358.74 2571
-136.05 -1360.33 2574
-129.894 -1360.33 2574
-123.739 -1360.33 2574
-117.584 -1360.33 2574
-111.429 -1360.33 2574
-105.274 -1360.33 2574
-99.1183 -1360.33 2574
-92.9631 -1360.33 2574
-86.8079 -1360.33 2574
-80.4334 -1356.63 2567
-74.2949 -1356.63 2567
-68.1564 -1356.63 2567
-62.0179 -1356.63 2567
-55.8795 -1356.63 2567
-49.741 -1356.63 2567
-43.5346 -1354.51 2563
-37.3473 -1352.4 2559
-31.2279 -1352.4 2559
-25.1086 -1352.4 2559
-18.9596 -1350.29 2555
-12.8498 -1350.29 2555
-6.74 -1350.29 2555
-0.63022 -1350.29 2555
5.4624 -1346.06 2547
11.5349 -1343.94 2543
17.5883 -1341.83 2539
23.6598 -1341.83 2539
29.7313 -1341.83 2539
35.7464 -1339.72 2535
41.7589 -1338.13 2532
47.8137 -1338.13 2532
53.8685 -1338.13 2532
59.9232 -1338.13 2532
65.7696 -1333.9 2524
71.6914 -1331.79 2520
77.7175 -1331.79 2520
83.6107 -1329.67 2516
89.6272 -1329.67 2516
95.7958 -1331.79 2520
101.822 -1331.79 2520
107.848 -1331.79 2520
113.874 -1331.79 2520
119.519 -1327.56 2512
125.526 -1327.56 2512
131.376 -1325.97 2509
137.376 -1325.97 2509
143.376 -1325.97 2509
149.376 -1325.97 2509
155.375 -1325.97 2509
161.375 -1325.97 2509
2652.12 -2155.7 4079
2661.87 -2155.7 4079
2671.62 -2155.7 4079
2636.02 -2119.23 4010
2652.21 -2124.52 4020
2661.82 -2124.52 4020
2671.43 -2124.52 4020
2681.05 -2124.52 4020
2683.97 -2119.23 4010
2674.75 -2104.44 3982
2684.27 -2104.44 3982
2687.03 -2099.15 3972
2690.42 -2094.4 3963
2686.95 -2084.35 3944
2696.38 -2084.35 3944
2692.77 -2074.31 3925
2689.77 -2064.8 3907
2668.02 -2041.02 3862
2677.26 -2041.02 3862
2686.49 -2041.02 3862
2670.6 -2021.99 3826
2661.54 -2008.25 3800
2652.35 -1994.51 3774
2661.38 -1994.51 3774
2658.37 -1985.53 3757
2655.29 -1976.54 3740
2640.72 -1959.1 3707
2621 -1937.96 3667
2629.77 -1937.96 3667
2609.76 -1916.82 3627
2612.65 -1912.6 3619
2615.51 -1908.37 3611
2624.15 -1908.37 3611
2610.18 -1891.98 3580
2612.89 -1887.76 3572
2616.29 -1884.06 3565
2624.82 -1884.06 3565
2627.44 -1879.83 3557
2630.01 -1875.6 3549
2633.29 -1871.9 3542
2630.58 -1863.98 3527
2639.01 -1863.98 3527
2630.93 -1852.35 3505
2622.75 -1840.72 3483
2631.08 -1840.72 3483
2639.41 -1840.72 3483
2642.41 -1837.02 3476
2644.62 -1832.79 3468
2642.21 -1825.4 3454
-1178.49 -828.069 1574
-1174.73 -828.069 1574
-1171.71 -828.595 1575
-1167.94 -828.595 1575
-1166.39 -830.173 1578
-1162.62 -830.173 1578
-1169.13 -837.538 1592
-1170.44 -841.221 1599
-1169.54 -843.325 1603
-1165.71 -843.325 1603
-1164.05 -844.904 1606
-1164.54 -848.06 1612
-1160.69 -848.06 1612
-1157.55 -848.586 1613
-1161.56 -854.373 1624
-1160.53 -856.478 1628
-1156.63 -856.478 1628
-1158.41 -860.686 1636
-1157.32 -862.791 1640
-1163.94 -870.682 1655
-1159.99 -870.682 1655
-1170 -881.204 1675
-1168.08 -882.782 1678
-1167.54 -885.413 1683
-1163.51 -885.413 1683
-1165.69 -890.148 1692
-1166.45 -893.83 1699
-1168.54 -898.565 1708
-1164.46 -898.565 1708
-1161.05 -899.091 1709
-1158.32 -900.143 1711
-1156.93 -902.248 1715
-1152.83 -902.248 1715
-1152.08 -904.878 1720
-1149.97 -906.456 1723
-1151.17 -910.665 1731
-1147.03 -910.665 1731
-1148.83 -915.4 1740
-1147.96 -918.03 1745
-1152.31 -924.87 1758
-1148.1 -924.87 1758
-1158.21 -936.444 1780
-1164.33 -944.861 1796
-1160.03 -944.861 1796
-1161.53 -949.596 1805
-1158.5 -950.648 1807
-1159.29 -954.857 1815
-1154.94 -954.857 1815
-1156.94 -960.118 1825
-1157.63 -964.326 1833
-1155.77 -966.431 1837
-1151.37 -966.431 1837
-1151.98 -970.64 1845
-1148.81 -971.692 1847
-1147.49 -974.322 1852
-1143.06 -974.322 1852
-1142.32 -977.479 1858
-1141.55 -980.635 1864
-1146.24 -988.527 1879
-1141.75 -988.527 1879
-1146.34 -996.418 1894
-1153.26 -1006.41 1913
-1158.29 -1014.83 1929
-1153.68 -1014.83 1929
-1151.45 -1016.94 1933
-1156.32 -1025.35 1949
-1154.02 -1027.46 1953
-1149.35 -1027.46 1953
-1147.61 -1030.09 1958
-1145.85 -1032.72 1963
-1142.32 -1033.77 1965
-1137.62 -1033.77 1965
-1135.8 -1036.4 1970
-1133.39 -1038.51 1974
-1128.67 -1038.51 1974
-1123.95 -1038.51 1974
-1123.2 -1042.19 1981
-1121.28 -1044.82 1986
-1119.35 -1047.45 1991
-1114.58 -1047.45 1991
-1116.51 -1053.76 2003
-1121.16 -1062.71 2020
-1119.09 -1065.34 2025
-1114.25 -1065.34 2025
-1110.5 -1066.39 2027
-1112.2 -1072.7 2039
-1110.04 -1075.33 2044
-1105.15 -1075.33 2044
-1100.26 -1075.33 2044
-1102.34 -1082.17 2057
-1107.03 -1091.64 2075
-1102.07 -1091.64 2075
-1108.21 -1102.69 2096
-1116.88 -1116.37 2122
-1111.81 -1116.37 2122
-1121.33 -1131.1 2150
-1127.61 -1142.67 2172
-1147.74 -1168.45 2221
-1142.43 -1168.45 2221
-1159.14 -1191.07 2264
-1161.37 -1198.96 2279
-1160.48 -1203.7 2288
-1155.01 -1203.7 2288
-1149.54 -1203.7 2288
-1152.07 -1212.12 2304
-1151.53 -1217.38 2314
-1146 -1217.38 2314
-1148.35 -1225.79 2330
-1149.16 -1232.63 2343
-1148.43 -1237.89 2353
-1142.81 -1237.89 2353
-1146.85 -1248.42 2373
-1147.9 -1255.78 2387
-1150.33 -1264.72 2404
-1144.58 -1264.72 2404
-1140.26 -1266.3 2407
-1141.1 -1273.67 2421
-1145.63 -1285.24 2443
-1139.78 -1285.24 2443
-1137.19 -1288.93 2450
-1139.64 -1298.39 2468
-1135.12 -1299.97 2471
-1129.21 -1299.97 2471
-1123.3 -1299.97 2471
-1117.39 -1299.97 2471
-1111.48 -1299.97 2471
-1105.58 -1299.97 2471
-1105.01 -1306.29 2483
-1108.81 -1317.86 2505
-1104.58 -1319.96 2509
-1098.58 -1319.96 2509
-1093.89 -1321.54 2512
-1087.88 -1321.54 2512
-1085.32 -1325.75 2520
-1079.29 -1325.75 2520
-1081.36 -1335.75 2539
-1076.98 -1337.85 2543
-1070.9 -1337.85 2543
-1064.82 -1337.85 2543
-1112.51 -1438.86 2735
-1118.91 -1455.7 2767
-1112.29 -1455.7 2767
-1107.28 -1457.8 2771
-1100.65 -1457.8 2771
-1094.02 -1457.8 2771
-1087.4 -1457.8 2771
-1084.28 -1462.54 2780
-1103.6 -1497.78 2847
-1098.72 -1500.41 2852
-1091.9 -1500.41 2852
-1085.08 -1500.41 2852
-1076.37 -1497.78 2847
-1069.56 -1497.78 2847
-1042.97 -1469.9 2794
-997.918 -1424.66 2708
-991.442 -1424.66 2708
-984.967 -1424.66 2708
-978.491 -1424.66 2708
-970.58 -1422.55 2704
-1082.58 -1859.21 3534
-1074.13 -1859.21 3534
-1065.68 -1859.21 3534
-1057.23 -1859.21 3534
-1046.7 -1855.53 3527
-1036.21 -1851.84 3520
-1034.21 -1863.42 3542
-1027.77 -1867.1 3549
-1019.28 -1867.1 3549
-1013.08 -1871.31 3557
-1008.81 -1879.2 3572
-1006.7 -1891.3 3595
-998.108 -1891.3 3595
-993.915 -1899.72 3611
-987.463 -1903.93 3619
-983.136 -1912.34 3635
-974.444 -1912.34 3635
-971.862 -1924.44 3658
-967.591 -1933.39 3675
-960.89 -1937.6 3683
-952.083 -1937.6 3683
-947.373 -1946.01 3699
-942.841 -1954.96 3716
-939.987 -1967.58 3740
-931.044 -1967.58 3740
-926.292 -1976.53 3757
-917.308 -1976.53 3757
-908.323 -1976.53 3757
-899.339 -1976.53 3757
-890.355 -1976.53 3757
-573.07 -1354.16 2574
-568.677 -1358.37 2582
-562.502 -1358.37 2582
-556.328 -1358.37 2582
-550.154 -1358.37 2582
-546.507 -1364.68 2594
-542.179 -1369.42 2603
-535.954 -1369.42 2603
-529.73 -1369.42 2603
-524.31 -1371.52 2607
-518.076 -1371.52 2607
-511.841 -1371.52 2607
-505.607 -1371.52 2607
-499.373 -1371.52 2607
-493.139 -1371.52 2607
-488.399 -1375.73 2615
-482.146 -1375.73 2615
-475.893 -1375.73 2615
-469.639 -1375.73 2615
-464.095 -1377.83 2619
-457.832 -1377.83 2619
-453.638 -1384.15 2631
-447.347 -1384.15 2631
-441.055 -1384.15 2631
-434.764 -1384.15 2631
-428.472 -1384.15 2631
-422.181 -1384.15 2631
-415.889 -1384.15 2631
-409.598 -1384.15 2631
-403.306 -1384.15 2631
-396.411 -1382.04 2627
-390.129 -1382.04 2627
-383.263 -1379.94 2623
-376.99 -1379.94 2623
-371.283 -1382.04 2627
-365.001 -1382.04 2627
-358.719 -1382.04 2627
-352.437 -1382.04 2627
-346.155 -1382.04 2627
-339.873 -1382.04 2627
-332.576 -1377.83 2619
-326.313 -1377.83 2619
-319.561 -1375.73 2615
-313.308 -1375.73 2615
-305.646 -1369.42 2603
-298.386 -1364.68 2594
-292.746 -1367.31 2599
-286.531 -1367.31 2599
-280.316 -1367.31 2599
-274.101 -1367.31 2599
-267.886 -1367.31 2599
-261.168 -1364.68 2594
-254.964 -1364.68 2594
-248.761 -1364.68 2594
-242.558 -1364.68 2594
-236.355 -1364.68 2594
-230.152 -1364.68 2594
-223.259 -1360.47 2586
-217.075 -1360.47 2586
-210.238 -1356.27 2578
-204.074 -1356.27 2578
-197.371 -1352.58 2571
-191.223 -1352.58 2571
-185.291 -1354.16 2574
-179.136 -1354.16 2574
-172.981 -1354.16 2574
-166.826 -1354.16 2574
-160.67 -1354.16 2574
-154.515 -1354.16 2574
-148.36 -1354.16 2574
-142.039 -1352.58 2571
-136.05 -1354.16 2574
-129.894 -1354.16 2574
-123.739 -1354.16 2574
-117.584 -1354.16 2574
-111.429 -1354.16 2574
-105.274 -1354.16 2574
-99.1183 -1354.16 2574
-92.9631 -1354.16 2574
-86.8079 -1354.16 2574
-80.4334 -1350.48 2567
-74.2949 -1350.48 2567
-68.1564 -1350.48 2567
-62.0179 -1350.48 2567
-55.8795 -1350.48 2567
-49.741 -1350.48 2567
-43.5346 -1348.37 2563
-37.4057 -1348.37 2563
-31.2279 -1346.27 2559
-25.1086 -1346.27 2559
-18.9892 -1346.27 2559
-12.8498 -1344.16 2555
-6.74 -1344.16 2555
-0.63022 -1344.16 2555
5.47956 -1344.16 2555
11.5531 -1339.96 2547
17.616 -1337.85 2543
23.6971 -1337.85 2543
29.7782 -1337.85 2543
35.8028 -1335.75 2539
41.8084 -1333.64 2535
47.8703 -1333.64 2535
53.9323 -1333.64 2535
59.9232 -1332.06 2532
65.8738 -1329.96 2528
71.8052 -1327.86 2524
77.8409 -1327.86 2524
83.7436 -1325.75 2520
89.7697 -1325.75 2520
95.9478 -1327.86 2524
101.983 -1327.86 2524
108.019 -1327.86 2524
113.874 -1325.75 2520
119.71 -1323.65 2516
125.726 -1323.65 2516
131.376 -1319.96 2509
137.376 -1319.96 2509
143.376 -1319.96 2509
149.376 -1319.96 2509
155.375 -1319.96 2509
161.375 -1319.96 2509
2652.12 -2145.93 4079
2661.87 -2145.93 4079
2671.62 -2145.93 4079
2623.53 -2099.63 3991
2633.07 -2099.63 3991
2642.62 -2099.63 3991
2652.16 -2099.63 3991
2661.71 -2099.63 3991
2665.23 -2094.9 3982
2668.03 -2089.64 3972
2677.53 -2089.64 3972
2680.94 -2084.9 3963
2677.52 -2074.91 3944
2674 -2064.91 3925
2683.39 -2064.91 3925
2674.25 -2050.71 3898
2658.79 -2031.77 3862
2649.37 -2017.56 3835
2658.54 -2017.56 3835
2667.71 -2017.56 3835
2646.87 -1994.94 3792
2643.33 -1985.47 3774
2628.46 -1967.58 3740
2637.4 -1967.58 3740
2646.35 -1967.58 3740
2638.25 -1954.96 3716
2629.33 -1941.81 3691
2621 -1929.18 3667
2629.77 -1929.18 3667
2609.76 -1908.14 3627
2612.65 -1903.93 3619
2609.72 -1895.51 3603
2618.33 -1895.51 3603
2610.18 -1883.41 3580
2612.89 -1879.2 3572
2621.43 -1879.2 3572
2629.97 -1879.2 3572
2633.34 -1875.52 3565
2635.94 -1871.31 3557
2644.45 -1871.31 3557
2652.95 -1871.31 3557
2650.23 -1863.42 3542
2642.19 -1851.84 3520
2639.31 -1843.95 3505
2636.36 -1836.06 3490
2644.71 -1836.06 3490
2647.73 -1832.38 3483
2656.06 -1832.38 3483
2647.56 -1820.8 3461
-1176.99 -823.251 1572
-1173.24 -823.251 1572
-1170.96 -824.298 1574
-1167.94 -824.822 1575
-1167.87 -827.44 1580
-1164.09 -827.44 1580
-1167.66 -832.677 1590
-1169.71 -836.867 1598
-1169.54 -839.485 1603
-1167.89 -841.056 1606
-1164.05 -841.056 1606
-1163.1 -843.151 1610
-1159.25 -843.151 1610
-1157.55 -844.722 1613
-1160.84 -849.959 1623
-1160.53 -852.578 1628
-1156.63 -852.578 1628
-1158.41 -856.767 1636
-1160.14 -860.957 1644
-1165.35 -867.765 1657
-1161.39 -867.765 1657
-1165.11 -873.526 1668
-1168.08 -878.763 1678
-1165.46 -879.81 1680
-1161.44 -879.81 1680
-1164.31 -885.047 1690
-1166.45 -889.76 1699
-1168.54 -894.473 1708
-1164.46 -894.473 1708
-1160.38 -894.473 1708
-1158.32 -896.045 1711
-1156.93 -898.139 1715
-1152.83 -898.139 1715
-1152.08 -900.758 1720
-1149.97 -902.329 1723
-1151.17 -906.518 1731
-1147.03 -906.518 1731
-1148.83 -911.232 1740
-1151.9 -916.992 1751
-1152.31 -920.658 1758
-1148.1 -920.658 1758
-1158.21 -932.18 1780
-1164.33 -940.559 1796
-1160.03 -940.559 1796
-1160.89 -944.748 1804
-1159.78 -947.367 1809
-1160.56 -951.556 1817
-1156.22 -951.556 1817
-1154.41 -953.651 1821
-1156.37 -958.888 1831
-1154.51 -960.983 1835
-1150.12 -960.983 1835
-1150.73 -965.172 1843
-1147.56 -966.22 1845
-1146.25 -968.838 1850
-1141.83 -968.838 1850
-1139.86 -970.933 1854
-1137.88 -973.028 1858
-1147.46 -985.073 1881
-1142.97 -985.073 1881
-1144.52 -990.31 1891
-1157.48 -1005.5 1920
-1158.29 -1010.21 1929
-1153.68 -1010.21 1929
-1158 -1018.07 1944
-1158.7 -1022.78 1953
-1158.16 -1026.44 1960
-1153.47 -1026.44 1960
-1150.55 -1028.02 1963
-1147.02 -1029.06 1965
-1147.55 -1033.78 1974
-1142.83 -1033.78 1974
-1138.11 -1033.78 1974
-1133.39 -1033.78 1974
-1130.39 -1035.35 1977
-1125.66 -1035.35 1977
-1123.2 -1037.44 1981
-1124.11 -1042.68 1991
-1122.16 -1045.3 1996
-1117.38 -1045.3 1996
-1119.3 -1051.58 2008
-1121.16 -1057.87 2020
-1119.09 -1060.49 2025
-1114.25 -1060.49 2025
-1115.98 -1066.77 2037
-1112.2 -1067.82 2039
-1111.67 -1072.01 2047
-1106.77 -1072.01 2047
-1108.88 -1078.81 2060
-1109.31 -1084.05 2070
-1116.63 -1096.1 2093
-1111.63 -1096.1 2093
-1110.85 -1100.29 2101
-1124.25 -1118.62 2136
-1119.14 -1118.62 2136
-1128.64 -1133.28 2164
-1138 -1147.94 2192
-1153.94 -1169.41 2233
-1148.6 -1169.41 2233
-1162.21 -1188.79 2270
-1164.42 -1196.65 2285
-1160.48 -1198.22 2288
-1155.01 -1198.22 2288
-1151.55 -1200.31 2292
-1152.07 -1206.6 2304
-1151.53 -1211.83 2314
-1146 -1211.83 2314
-1148.35 -1220.21 2330
-1149.16 -1227.02 2343
-1148.43 -1232.26 2353
-1142.81 -1232.26 2353
-1146.85 -1242.73 2373
-1147.9 -1250.06 2387
-1150.33 -1258.97 2404
-1144.58 -1258.97 2404
-1140.26 -1260.54 2407
-1141.1 -1267.87 2421
-1145.63 -1279.39 2443
-1139.78 -1279.39 2443
-1137.19 -1283.06 2450
-1139.64 -1292.48 2468
-1135.12 -1294.05 2471
-1129.21 -1294.05 2471
-1123.3 -1294.05 2471
-1117.39 -1294.05 2471
-1111.48 -1294.05 2471
-1105.58 -1294.05 2471
-1105.01 -1300.34 2483
-1108.81 -1311.86 2505
-1104.58 -1313.95 2509
-1098.58 -1313.95 2509
-1093.89 -1315.53 2512
-1087.88 -1315.53 2512
-1085.32 -1319.71 2520
-1079.29 -1319.71 2520
-1081.36 -1329.67 2539
-1076.98 -1331.76 2543
-1070.9 -1331.76 2543
-1064.82 -1331.76 2543
-1112.51 -1432.31 2735
-1118.91 -1449.07 2767
-1112.29 -1449.07 2767
-1107.28 -1451.16 2771
-1100.65 -1451.16 2771
-1094.02 -1451.16 2771
-1087.4 -1451.16 2771
-1084.28 -1455.88 2780
-1103.6 -1490.96 2847
-1098.72 -1493.58 2852
-1091.9 -1493.58 2852
-1085.08 -1493.58 2852
-1076.37 -1490.96 2847
-1069.56 -1490.96 2847
-1046.7 -1468.44 2804
-997.918 -1418.17 2708
-991.442 -1418.17 2708
-984.967 -1418.17 2708
-978.491 -1418.17 2708
-970.58 -1416.08 2704
-946.999 -1390.94 2656
-940.648 -1390.94 2656
-1082.58 -1850.74 3534
-1076.56 -1854.93 3542
-1068.09 -1854.93 3542
-1059.62 -1854.93 3542
-1048.78 -1850.74 3534
-1036.21 -1843.41 3520
-1034.21 -1854.93 3542
-1027.77 -1858.6 3549
-1019.28 -1858.6 3549
-1013.08 -1862.79 3557
-1013.32 -1879.02 3588
-1008.94 -1886.88 3603
-1000.33 -1886.88 3603
-993.915 -1891.07 3611
-989.646 -1899.45 3627
-983.136 -1903.64 3635
-974.444 -1903.64 3635
-971.862 -1915.68 3658
-967.591 -1924.58 3675
-962.977 -1932.96 3691
-954.151 -1932.96 3691
-951.727 -1946.06 3716
-946.901 -1954.43 3732
-939.987 -1958.62 3740
-931.044 -1958.62 3740
-926.292 -1967.53 3757
-917.308 -1967.53 3757
-908.323 -1967.53 3757
-899.339 -1967.53 3757
-890.355 -1967.53 3757
-573.07 -1347.99 2574
-568.677 -1352.18 2582
-562.502 -1352.18 2582
-556.328 -1352.18 2582
-550.154 -1352.18 2582
-545.665 -1356.37 2590
-540.304 -1358.47 2594
-535.131 -1361.09 2599
-528.916 -1361.09 2599
-523.505 -1363.18 2603
-517.281 -1363.18 2603
-511.841 -1365.28 2607
-505.607 -1365.28 2607
-499.373 -1365.28 2607
-493.139 -1365.28 2607
-487.652 -1367.37 2611
-481.408 -1367.37 2611
-475.893 -1369.47 2615
-469.639 -1369.47 2615
-464.095 -1371.56 2619
-457.832 -1371.56 2619
-453.638 -1377.85 2631
-447.347 -1377.85 2631
-441.055 -1377.85 2631
-434.764 -1377.85 2631
-428.472 -1377.85 2631
-422.181 -1377.85 2631
-415.889 -1377.85 2631
-409.598 -1377.85 2631
-403.306 -1377.85 2631
-396.411 -1375.75 2627
-390.129 -1375.75 2627
-383.263 -1373.66 2623
-376.99 -1373.66 2623
-371.283 -1375.75 2627
-365.001 -1375.75 2627
-358.719 -1375.75 2627
-352.437 -1375.75 2627
-346.155 -1375.75 2627
-339.873 -1375.75 2627
-332.576 -1371.56 2619
-326.313 -1371.56 2619
-319.561 -1369.47 2615
-313.308 -1369.47 2615
-305.646 -1363.18 2603
-298.386 -1358.47 2594
-292.746 -1361.09 2599
-286.531 -1361.09 2599
-280.316 -1361.09 2599
-274.101 -1361.09 2599
-267.886 -1361.09 2599
-261.168 -1358.47 2594
-254.964 -1358.47 2594
-248.761 -1358.47 2594
-242.558 -1358.47 2594
-236.355 -1358.47 2594
-230.152 -1358.47 2594
-223.259 -1354.28 2586
-217.075 -1354.28 2586
-210.238 -1350.09 2578
-204.074 -1350.09 2578
-197.371 -1346.42 2571
-191.223 -1346.42 2571
-185.291 -1347.99 2574
-179.136 -1347.99 2574
-172.981 -1347.99 2574
-166.826 -1347.99 2574
-160.67 -1347.99 2574
-154.515 -1347.99 2574
-148.36 -1347.99 2574
-142.039 -1346.42 2571
-135.891 -1346.42 2571
-129.743 -1346.42 2571
-123.595 -1346.42 2571
-117.447 -1346.42 2571
-111.299 -1346.42 2571
-105.151 -1346.42 2571
-99.0028 -1346.42 2571
-92.8548 -1346.42 2571
-86.7067 -1346.42 2571
-80.4334 -1344.33 2567
-74.2949 -1344.33 2567
-68.1564 -1344.33 2567
-62.0179 -1344.33 2567
-55.8795 -1344.33 2567
-49.741 -1344.33 2567
-43.5346 -1342.23 2563
-37.4057 -1342.23 2563
-31.2279 -1340.14 2559
-25.1086 -1340.14 2559
-18.9892 -1340.14 2559
-12.8498 -1338.04 2555
-6.74 -1338.04 2555
-0.63022 -1338.04 2555
5.47956 -1338.04 2555
11.5531 -1333.85 2547
17.616 -1331.76 2543
23.6971 -1331.76 2543
29.7782 -1331.76 2543
35.8028 -1329.67 2539
41.8084 -1327.57 2535
47.8703 -1327.57 2535
53.9323 -1327.57 2535
59.9232 -1326 2532
65.8738 -1323.9 2528
71.8052 -1321.81 2524
77.8409 -1321.81 2524
83.7436 -1319.71 2520
89.7697 -1319.71 2520
95.9478 -1321.81 2524
101.983 -1321.81 2524
108.019 -1321.81 2524
113.874 -1319.71 2520
119.71 -1317.62 2516
125.726 -1317.62 2516
131.376 -1313.95 2509
137.376 -1313.95 2509
143.376 -1313.95 2509
149.376 -1313.95 2509
155.375 -1313.95 2509
161.375 -1313.95 2509
2632.61 -2136.16 4079
2642.36 -2136.16 4079
2652.12 -2136.16 4079
2655.34 -2130.92 4069
2665.07 -2130.92 4069
2617.61 -2085.36 3982
2627.14 -2085.36 3982
2636.66 -2085.36 3982
2646.18 -2085.36 3982
2649.03 -2080.12 3972
2658.53 -2080.12 3972
2649.22 -2065.46 3944
2658.65 -2065.46 3944
2655.23 -2055.51 3925
2658.51 -2050.8 3916
2661.74 -2046.08 3907
2671.08 -2046.08 3907
2661.9 -2031.94 3880
2646.4 -2013.09 3844
2643.15 -2003.66 3826
2640.52 -1994.76 3809
2649.63 -1994.76 3809
2646.87 -1985.86 3792
2637.73 -1972.24 3766
2640.41 -1967.53 3757
2649.39 -1967.53 3757
2652.71 -1963.34 3749
2643.93 -1950.25 3724
2635.03 -1937.15 3699
2626.72 -1924.58 3675
2635.51 -1924.58 3675
2620.55 -1907.3 3642
2618.43 -1899.45 3627
2609.72 -1886.88 3603
2618.33 -1886.88 3603
2621.12 -1882.69 3595
2612.89 -1870.64 3572
2621.43 -1870.64 3572
2629.97 -1870.64 3572
2638.51 -1870.64 3572
2641.87 -1866.98 3565
2644.45 -1862.79 3557
2652.95 -1862.79 3557
2661.46 -1862.79 3557
2652.7 -1850.74 3534
2650.61 -1843.41 3520
2647.69 -1835.56 3505
2656.08 -1835.56 3505
2653.06 -1827.7 3490
2661.4 -1827.7 3490
2659.04 -1820.37 3476
-1176.99 -819.485 1572
-1173.24 -819.485 1572
-1170.96 -820.528 1574
-1167.94 -821.049 1575
-1167.87 -823.655 1580
-1164.09 -823.655 1580
-1169.86 -830.432 1593
-1169.71 -833.039 1598
-1169.54 -835.645 1603
-1167.89 -837.209 1606
-1164.05 -837.209 1606
-1163.1 -839.294 1610
-1159.25 -839.294 1610
-1157.55 -840.858 1613
-1160.84 -846.071 1623
-1164.81 -851.806 1634
-1160.9 -851.806 1634
-1162.65 -855.976 1642
-1167.9 -862.753 1655
-1173.09 -869.53 1668
-1169.1 -869.53 1668
-1172.09 -874.743 1678
-1169.47 -875.786 1680
-1171.7 -880.477 1689
-1167.66 -880.477 1689
-1167.07 -883.084 1694
-1167.82 -886.733 1701
-1168.54 -890.382 1708
-1164.46 -890.382 1708
-1161.05 -890.903 1709
-1161.03 -894.031 1715
-1160.3 -896.638 1720
-1156.19 -896.638 1720
-1153.42 -897.68 1722
-1152.63 -900.287 1727
-1153.16 -903.936 1734
-1149.01 -903.936 1734
-1150.81 -908.627 1743
-1151.9 -912.798 1751
-1152.31 -916.447 1758
-1148.1 -916.447 1758
-1158.21 -927.916 1780
-1164.33 -936.256 1796
-1160.03 -936.256 1796
-1160.89 -940.427 1804
-1159.78 -943.033 1809
-1160.56 -947.204 1817
-1156.22 -947.204 1817
-1154.41 -949.289 1821
-1156.37 -954.502 1831
-1154.51 -956.587 1835
-1150.12 -956.587 1835
-1150.73 -960.758 1843
-1147.56 -961.8 1845
-1146.25 -964.407 1850
-1141.83 -964.407 1850
-1139.86 -966.492 1854
-1139.1 -969.62 1860
-1147.46 -980.567 1881
-1142.97 -980.567 1881
-1147.55 -988.386 1896
-1162.91 -1005.59 1929
-1163.7 -1010.28 1938
-1159.06 -1010.28 1938
-1160.98 -1016.02 1949
-1162.85 -1021.75 1960
-1162.3 -1025.4 1967
-1157.59 -1025.4 1967
-1154.65 -1026.96 1970
-1152.27 -1029.05 1974
-1150.46 -1031.65 1979
-1145.73 -1031.65 1979
-1142.15 -1032.7 1981
-1137.41 -1032.7 1981
-1134.39 -1034.26 1984
-1129.64 -1034.26 1984
-1128.87 -1037.91 1991
-1126.93 -1040.52 1996
-1126.09 -1044.17 2003
-1121.3 -1044.17 2003
-1119.3 -1046.77 2008
-1123.93 -1055.63 2025
-1125.72 -1061.89 2037
-1120.85 -1061.89 2037
-1118.72 -1064.5 2042
-1116.56 -1067.1 2047
-1118.73 -1073.88 2060
-1113.8 -1073.88 2060
-1114.26 -1079.09 2070
-1113.6 -1083.26 2078
-1119.3 -1093.69 2098
-1114.28 -1093.69 2098
-1127.77 -1111.93 2133
-1131.62 -1120.8 2150
-1126.48 -1120.8 2150
-1137.5 -1136.96 2181
-1148.9 -1153.64 2213
-1168.41 -1178.66 2261
-1163.01 -1178.66 2261
-1168.35 -1189.61 2282
-1165.95 -1192.74 2288
-1164.03 -1196.39 2295
-1158.54 -1196.39 2295
-1153.05 -1196.39 2295
-1153.57 -1202.64 2307
-1153.03 -1207.85 2317
-1147.49 -1207.85 2317
-1148.35 -1214.63 2330
-1147.69 -1219.84 2340
-1145.02 -1222.97 2346
-1139.41 -1222.97 2346
-1142.01 -1231.83 2363
-1141.17 -1237.05 2373
-1142.2 -1244.35 2387
-1136.49 -1244.35 2387
-1133.62 -1247.47 2393
-1137.8 -1258.42 2414
-1135.31 -1262.07 2421
-1129.52 -1262.07 2421
-1133.94 -1273.54 2443
-1131.33 -1277.19 2450
-1130.53 -1282.92 2461
-1124.64 -1282.92 2461
-1121.94 -1286.57 2468
-1116.04 -1286.57 2468
-1110.14 -1286.57 2468
-1104.23 -1286.57 2468
-1105.01 -1294.39 2483
-1105.27 -1301.69 2497
-1102.82 -1305.86 2505
-1096.83 -1305.86 2505
-1090.84 -1305.86 2505
-1087.88 -1309.51 2512
-1085.32 -1313.68 2520
-1079.29 -1313.68 2520
-1081.36 -1323.58 2539
-1076.98 -1325.67 2543
-1070.9 -1325.67 2543
-1064.82 -1325.67 2543
-1112.51 -1425.76 2735
-1114.87 -1437.23 2757
-1108.27 -1437.23 2757
-1103.68 -1439.83 2762
-1097.07 -1439.83 2762
-1092.44 -1442.44 2767
-1085.83 -1442.44 2767
-1084.28 -1449.22 2780
-1103.6 -1484.14 2847
-1098.72 -1486.75 2852
-1091.9 -1486.75 2852
-1085.08 -1486.75 2852
-1076.37 -1484.14 2847
-1069.56 -1484.14 2847
-1046.7 -1461.73 2804
-991.653 -1402.82 2691
-985.218 -1402.82 2691
-978.783 -1402.82 2691
-962.954 -1389.27 2665
-956.581 -1389.27 2665
-946.999 -1384.58 2656
-940.648 -1384.58 2656
-1082.58 -1842.28 3534
-1076.56 -1846.45 3542
-1068.09 -1846.45 3542
-1059.62 -1846.45 3542
-1048.78 -1842.28 3534
-1036.21 -1834.98 3520
-1034.21 -1846.45 3542
-1027.77 -1850.1 3549
-1019.28 -1850.1 3549
-1013.08 -1854.27 3557
-1013.32 -1870.43 3588
-1008.94 -1878.25 3603
-1000.33 -1878.25 3603
-993.915 -1882.42 3611
-989.646 -1890.76 3627
-983.136 -1894.93 3635
-974.444 -1894.93 3635
-971.862 -1906.92 3658
-967.591 -1915.78 3675
-962.977 -1924.12 3691
-954.151 -1924.12 3691
-951.727 -1937.15 3716
-946.901 -1945.49 3732
-939.987 -1949.67 3740
-931.044 -1949.67 3740
-926.292 -1958.53 3757
-917.308 -1958.53 3757
-908.323 -1958.53 3757
-899.339 -1958.53 3757
-890.355 -1958.53 3757
-570.621 -1336.09 2563
-566.915 -1341.83 2574
-561.631 -1343.91 2578
-555.466 -1343.91 2578
-549.301 -1343.91 2578
-543.979 -1346 2582
-539.471 -1350.17 2590
-533.278 -1350.17 2590
-527.084 -1350.17 2590
-522.701 -1354.86 2599
-516.486 -1354.86 2599
-511.056 -1356.95 2603
-504.832 -1356.95 2603
-498.607 -1356.95 2603
-493.139 -1359.03 2607
-487.652 -1361.12 2611
-481.408 -1361.12 2611
-475.165 -1361.12 2611
-469.639 -1363.2 2615
-464.095 -1365.29 2619
-457.832 -1365.29 2619
-453.638 -1371.54 2631
-447.347 -1371.54 2631
-441.055 -1371.54 2631
-434.764 -1371.54 2631
-428.472 -1371.54 2631
-422.181 -1371.54 2631
-415.889 -1371.54 2631
-409.598 -1371.54 2631
-403.306 -1371.54 2631
-396.411 -1369.46 2627
-390.129 -1369.46 2627
-383.263 -1367.37 2623
-376.99 -1367.37 2623
-371.283 -1369.46 2627
-365.001 -1369.46 2627
-358.719 -1369.46 2627
-352.437 -1369.46 2627
-346.155 -1369.46 2627
-339.873 -1369.46 2627
-332.576 -1365.29 2619
-326.313 -1365.29 2619
-319.561 -1363.2 2615
-313.308 -1363.2 2615
-305.646 -1356.95 2603
-298.386 -1352.25 2594
-292.746 -1354.86 2599
-286.531 -1354.86 2599
-280.316 -1354.86 2599
-274.101 -1354.86 2599
-267.886 -1354.86 2599
-261.168 -1352.25 2594
-254.964 -1352.25 2594
-248.761 -1352.25 2594
-242.558 -1352.25 2594
-236.355 -1352.25 2594
-230.152 -1352.25 2594
-223.604 -1350.17 2590
-217.075 -1348.08 2586
-210.238 -1343.91 2578
-204.074 -1343.91 2578
-197.371 -1340.26 2571
-191.447 -1341.83 2574
-185.291 -1341.83 2574
-179.136 -1341.83 2574
-172.981 -1341.83 2574
-166.826 -1341.83 2574
-160.67 -1341.83 2574
-154.515 -1341.83 2574
-148.36 -1341.83 2574
-142.039 -1340.26 2571
-135.891 -1340.26 2571
-129.894 -1341.83 2574
-123.739 -1341.83 2574
-117.584 -1341.83 2574
-111.299 -1340.26 2571
-105.151 -1340.26 2571
-99.0028 -1340.26 2571
-92.8548 -1340.26 2571
-86.7067 -1340.26 2571
-80.5587 -1340.26 2571
-74.4107 -1340.26 2571
-68.2626 -1340.26 2571
-62.1146 -1340.26 2571
-55.9665 -1340.26 2571
-49.8185 -1340.26 2571
-43.6025 -1338.18 2567
-37.4057 -1336.09 2563
-31.2767 -1336.09 2563
-25.1478 -1336.09 2563
-19.0189 -1336.09 2563
-12.8699 -1334.01 2559
-6.75055 -1334.01 2559
-0.631207 -1334.01 2559
5.47956 -1331.92 2555
11.5712 -1329.84 2551
17.6437 -1327.75 2547
23.7343 -1327.75 2547
29.825 -1327.75 2547
35.8592 -1325.67 2543
41.8744 -1323.58 2539
47.8703 -1321.5 2535
53.9323 -1321.5 2535
59.9942 -1321.5 2535
65.978 -1319.93 2532
71.919 -1317.85 2528
77.9642 -1317.85 2528
83.7436 -1313.68 2520
89.9122 -1315.76 2524
95.9478 -1315.76 2524
101.983 -1315.76 2524
108.019 -1315.76 2524
114.055 -1315.76 2524
119.71 -1311.59 2516
125.726 -1311.59 2516
131.533 -1309.51 2512
137.54 -1309.51 2512
143.376 -1307.94 2509
149.376 -1307.94 2509
155.375 -1307.94 2509
160.861 -1303.77 2501
166.574 -1301.69 2497
172.546 -1301.69 2497
2632.61 -2126.39 4079
2642.36 -2126.39 4079
2652.12 -2126.39 4079
2655.34 -2121.17 4069
2665.07 -2121.17 4069
2617.61 -2075.82 3982
2627.14 -2075.82 3982
2636.66 -2075.82 3982
2646.18 -2075.82 3982
2649.03 -2070.61 3972
2658.53 -2070.61 3972
2649.22 -2056.01 3944
2658.65 -2056.01 3944
2668.08 -2056.01 3944
2671.41 -2051.32 3935
2667.87 -2041.41 3916
2677.24 -2041.41 3916
2668.08 -2027.34 3889
2652.59 -2008.57 3853
2643.15 -1994.5 3826
2640.52 -1985.64 3809
2649.63 -1985.64 3809
2646.87 -1976.77 3792
2649.63 -1972.08 3783
2646.73 -1963.22 3766
2655.74 -1963.22 3766
2658.37 -1958.53 3757
2661.68 -1954.36 3749
2647.14 -1937.15 3716
2656.02 -1937.15 3716
2646.98 -1924.12 3691
2632.06 -1906.92 3658
2624.2 -1894.93 3635
2621.31 -1886.59 3619
2629.96 -1886.59 3619
2626.95 -1878.25 3603
2635.57 -1878.25 3603
2638.31 -1874.08 3595
2646.91 -1874.08 3595
2655.5 -1874.08 3595
2652.99 -1866.26 3580
2661.55 -1866.26 3580
2670.11 -1866.26 3580
2661.46 -1854.27 3557
2669.96 -1854.27 3557
2655.88 -1838.63 3527
2652.98 -1830.81 3512
2661.38 -1830.81 3512
2664.46 -1827.16 3505
2666.74 -1822.99 3497
2664.39 -1815.69 3483
-1176.25 -815.2 1571
-1172.49 -815.2 1571
-1169.48 -815.719 1572
-1167.2 -816.757 1574
-1167.87 -819.87 1580
-1164.09 -819.87 1580
-1169.86 -826.616 1593
-1169.71 -829.211 1598
-1165.89 -829.211 1598
-1167.89 -833.362 1606
-1164.05 -833.362 1606
-1163.1 -835.438 1610
-1159.25 -835.438 1610
-1157.55 -836.994 1613
-1159.41 -841.146 1621
-1164.81 -847.891 1634
-1160.9 -847.891 1634
-1162.65 -852.043 1642
-1167.9 -858.788 1655
-1173.09 -865.534 1668
-1169.1 -865.534 1668
-1172.09 -870.723 1678
-1169.47 -871.761 1680
-1171.7 -876.431 1689
-1167.66 -876.431 1689
-1167.07 -879.026 1694
-1167.82 -882.658 1701
-1168.54 -886.29 1708
-1164.46 -886.29 1708
-1161.05 -886.809 1709
-1161.03 -889.923 1715
-1160.3 -892.517 1720
-1156.19 -892.517 1720
-1153.42 -893.555 1722
-1152.63 -896.15 1727
-1153.16 -899.782 1734
-1149.01 -899.782 1734
-1150.81 -904.452 1743
-1151.9 -908.603 1751
-1152.31 -912.236 1758
-1148.1 -912.236 1758
-1158.21 -923.652 1780
-1164.33 -931.954 1796
-1160.03 -931.954 1796
-1160.89 -936.105 1804
-1159.78 -938.7 1809
-1160.56 -942.851 1817
-1156.22 -942.851 1817
-1154.41 -944.927 1821
-1155.11 -949.078 1829
-1153.25 -951.154 1833
-1148.87 -951.154 1833
-1150.73 -956.343 1843
-1147.56 -957.38 1845
-1146.25 -959.975 1850
-1141.83 -959.975 1850
-1139.86 -962.051 1854
-1139.1 -965.164 1860
-1147.46 -976.061 1881
-1142.97 -976.061 1881
-1147.55 -983.845 1896
-1162.91 -1000.97 1929
-1163.7 -1005.64 1938
-1159.06 -1005.64 1938
-1160.98 -1011.35 1949
-1162.85 -1017.05 1960
-1162.3 -1020.69 1967
-1157.59 -1020.69 1967
-1154.65 -1022.24 1970
-1152.27 -1024.32 1974
-1150.46 -1026.91 1979
-1145.73 -1026.91 1979
-1142.15 -1027.95 1981
-1137.41 -1027.95 1981
-1134.39 -1029.51 1984
-1129.64 -1029.51 1984
-1128.87 -1033.14 1991
-1126.93 -1035.74 1996
-1126.09 -1039.37 2003
-1121.3 -1039.37 2003
-1119.3 -1041.96 2008
-1123.93 -1050.78 2025
-1125.72 -1057.01 2037
-1120.85 -1057.01 2037
-1118.72 -1059.6 2042
-1116.56 -1062.2 2047
-1118.73 -1068.95 2060
-1113.8 -1068.95 2060
-1114.26 -1074.13 2070
-1113.6 -1078.29 2078
-1119.3 -1088.66 2098
-1114.28 -1088.66 2098
-1127.77 -1106.83 2133
-1131.62 -1115.65 2150
-1126.48 -1115.65 2150
-1137.5 -1131.73 2181
-1148.9 -1148.34 2213
-1168.41 -1173.25 2261
-1163.01 -1173.25 2261
-1168.35 -1184.14 2282
-1165.95 -1187.26 2288
-1164.03 -1190.89 2295
-1158.54 -1190.89 2295
-1153.05 -1190.89 2295
-1153.57 -1197.11 2307
-1153.03 -1202.3 2317
-1147.49 -1202.3 2317
-1148.35 -1209.05 2330
-1147.69 -1214.24 2340
-1145.02 -1217.35 2346
-1139.41 -1217.35 2346
-1138.63 -1222.54 2356
-1137.81 -1227.73 2366
-1140.28 -1236.55 2383
-1134.58 -1236.55 2383
-1130.78 -1238.63 2387
-1131.2 -1245.37 2400
-1137.18 -1258.35 2425
-1131.39 -1258.35 2425
-1132.08 -1265.61 2439
-1134.56 -1274.95 2457
-1128.69 -1274.95 2457
-1122.81 -1274.95 2457
-1123.3 -1282.22 2471
-1119.2 -1284.29 2475
-1113.28 -1284.29 2475
-1107.37 -1284.29 2475
-1101.45 -1284.29 2475
-1103.94 -1294.15 2494
-1099.3 -1295.71 2497
-1093.32 -1295.71 2497
-1089.09 -1297.78 2501
-1086.58 -1301.93 2509
-1087.04 -1309.72 2524
-1081 -1309.72 2524
-1083.06 -1319.58 2543
-1076.98 -1319.58 2543
-1070.9 -1319.58 2543
-1064.82 -1319.58 2543
-1117.01 -1416.61 2730
-1112.51 -1419.21 2735
-1113.25 -1428.55 2753
-1106.67 -1428.55 2753
-1100.08 -1428.55 2753
-1093.5 -1428.55 2753
-1096 -1440.48 2776
-1089.36 -1440.48 2776
-1084.28 -1442.56 2780
-1088.87 -1457.61 2809
-1096.8 -1477.32 2847
-1089.99 -1477.32 2847
-1083.18 -1477.32 2847
-1076.37 -1477.32 2847
-1069.56 -1477.32 2847
-1046.7 -1455.01 2804
-1027.76 -1437.89 2771
-1012.66 -1425.95 2748
-1006.09 -1425.95 2748
-989.695 -1411.94 2721
-969.096 -1391.7 2682
-956.581 -1382.88 2665
-946.999 -1378.21 2656
-940.648 -1378.21 2656
-1076.56 -1837.96 3542
-1068.09 -1837.96 3542
-1059.62 -1837.96 3542
-1048.78 -1833.81 3534
-1036.21 -1826.55 3520
-1034.21 -1837.96 3542
-1025.74 -1837.96 3542
-1017.27 -1837.96 3542
-1013.08 -1845.75 3557
-1015.3 -1865.46 3595
-1008.94 -1869.62 3603
-1000.33 -1869.62 3603
-993.915 -1873.77 3611
-989.646 -1882.07 3627
-983.136 -1886.22 3635
-974.444 -1886.22 3635
-971.862 -1898.16 3658
-967.591 -1906.98 3675
-965.064 -1919.43 3699
-956.219 -1919.43 3699
-951.727 -1928.25 3716
-948.931 -1940.71 3740
-944.26 -1949.53 3757
-935.276 -1949.53 3757
-928.511 -1954.2 3766
-921.458 -1958.35 3774
-914.609 -1963.02 3783
-905.563 -1963.02 3783
-896.517 -1963.02 3783
-569.73 -1327.88 2559
-565.373 -1332.03 2567
-560.106 -1334.11 2571
-554.604 -1335.66 2574
-548.449 -1335.66 2574
-543.136 -1337.74 2578
-538.638 -1341.89 2586
-532.454 -1341.89 2586
-526.27 -1341.89 2586
-521.695 -1346.04 2594
-516.486 -1348.64 2599
-510.271 -1348.64 2599
-504.056 -1348.64 2599
-498.607 -1350.71 2603
-493.139 -1352.79 2607
-487.652 -1354.86 2611
-481.408 -1354.86 2611
-475.165 -1354.86 2611
-469.639 -1356.94 2615
-464.095 -1359.01 2619
-457.832 -1359.01 2619
-453.638 -1365.24 2631
-447.347 -1365.24 2631
-441.055 -1365.24 2631
-434.764 -1365.24 2631
-428.472 -1365.24 2631
-422.181 -1365.24 2631
-415.889 -1365.24 2631
-409.598 -1365.24 2631
-403.306 -1365.24 2631
-396.411 -1363.16 2627
-390.129 -1363.16 2627
-383.263 -1361.09 2623
-376.99 -1361.09 2623
-370.718 -1361.09 2623
-365.001 -1363.16 2627
-358.719 -1363.16 2627
-352.437 -1363.16 2627
-346.155 -1363.16 2627
-339.873 -1363.16 2627
-332.576 -1359.01 2619
-325.814 -1356.94 2615
-319.072 -1354.86 2611
-312.829 -1354.86 2611
-305.646 -1350.71 2603
-298.961 -1348.64 2599
-293.196 -1350.71 2603
-286.972 -1350.71 2603
-280.747 -1350.71 2603
-274.523 -1350.71 2603
-267.886 -1348.64 2599
-261.168 -1346.04 2594
-255.456 -1348.64 2599
-249.241 -1348.64 2599
-243.026 -1348.64 2599
-236.811 -1348.64 2599
-230.596 -1348.64 2599
-223.949 -1346.04 2594
-217.41 -1343.96 2590
-210.565 -1339.81 2582
-204.39 -1339.81 2582
-197.909 -1337.74 2578
-191.744 -1337.74 2578
-185.579 -1337.74 2578
-179.414 -1337.74 2578
-173.25 -1337.74 2578
-167.085 -1337.74 2578
-160.92 -1337.74 2578
-154.755 -1337.74 2578
-148.36 -1335.66 2574
-142.039 -1334.11 2571
-136.05 -1335.66 2574
-129.894 -1335.66 2574
-123.739 -1335.66 2574
-117.584 -1335.66 2574
-111.429 -1335.66 2574
-105.274 -1335.66 2574
-99.1183 -1335.66 2574
-92.9631 -1335.66 2574
-86.8079 -1335.66 2574
-80.6527 -1335.66 2574
-74.4975 -1335.66 2574
-68.3423 -1335.66 2574
-62.187 -1335.66 2574
-55.9665 -1334.11 2571
-49.8185 -1334.11 2571
-43.6704 -1334.11 2571
-37.464 -1332.03 2567
-31.2767 -1329.95 2563
-25.1478 -1329.95 2563
-19.0189 -1329.95 2563
-12.89 -1329.95 2563
-6.7611 -1329.95 2563
-0.632193 -1329.95 2563
5.48814 -1327.88 2559
11.5712 -1323.73 2551
17.6714 -1323.73 2551
23.7716 -1323.73 2551
29.825 -1321.65 2547
35.9156 -1321.65 2547
41.8744 -1317.5 2539
47.9459 -1317.5 2539
54.0174 -1317.5 2539
59.9942 -1315.43 2535
65.978 -1313.87 2532
71.919 -1311.79 2528
77.9642 -1311.79 2528
