-568.363 -802.806 3542
-559.893 -802.806 3542
-551.423 -802.806 3542
-544.026 -804.393 3549
-535.54 -804.393 3549
-527.053 -804.393 3549
-517.543 -802.806 3542
-509.073 -802.806 3542
-500.603 -802.806 3542
-489.077 -797.82 3520
-477.519 -792.607 3497
-469.156 -792.607 3497
-458.949 -789.433 3483
-444.151 -778.101 3433
-435.942 -778.101 3433
-427.733 -778.101 3433
-419.523 -778.101 3433
-168.815 -319.355 1409
-165.445 -319.355 1409
-161.846 -318.901 1407
-158.819 -319.581 1410
-155.448 -319.581 1410
-152.184 -319.808 1411
-148.81 -319.808 1411
-145.436 -319.808 1411
-141.961 -319.581 1410
-138.589 -319.581 1410
-135.313 -319.808 1411
-131.939 -319.808 1411
-128.565 -319.808 1411
-125.191 -319.808 1411
-121.73 -319.581 1410
-118.359 -319.581 1410
-114.579 -318.448 1405
-111.219 -318.448 1405
-108.013 -318.901 1407
-104.649 -318.901 1407
-101.284 -318.901 1407
-97.7106 -318.221 1404
-94.286 -317.995 1403
-90.8662 -317.768 1402
-87.5136 -317.768 1402
-84.161 -317.768 1402
-80.7507 -317.541 1401
-77.3453 -317.315 1400
-73.9975 -317.315 1400
-70.6496 -317.315 1400
-67.3499 -317.541 1401
-64.0453 -317.768 1402
-60.6927 -317.768 1402
-57.3401 -317.768 1402
-53.9875 -317.768 1402
-50.5627 -317.315 1400
-47.3498 -318.221 1404
-43.9924 -318.221 1404
-40.635 -318.221 1404
-37.2776 -318.221 1404
-33.9202 -318.221 1404
-30.5628 -318.221 1404
-27.1861 -317.995 1403
-23.8311 -317.995 1403
-20.4907 -318.221 1404
-17.1333 -318.221 1404
-13.7759 -318.221 1404
-10.4259 -318.448 1405
-7.08121 -319.128 1408
-3.71425 -319.128 1408
-0.347299 -319.128 1408
3.0218 -319.355 1409
6.39568 -319.581 1410
9.76742 -319.581 1410
13.1392 -319.581 1410
16.5109 -319.581 1410
19.8967 -319.808 1411
23.2709 -319.808 1411
26.645 -319.808 1411
30.0191 -319.808 1411
33.3932 -319.808 1411
36.8456 -320.488 1414
40.2269 -320.488 1414
43.6082 -320.488 1414
47.0227 -320.714 1415
50.442 -320.941 1416
53.8281 -320.941 1416
57.2546 -321.168 1417
60.7286 -321.621 1419
64.1671 -321.848 1420
67.5628 -321.848 1420
70.9584 -321.848 1420
74.4064 -322.074 1421
77.8045 -322.074 1421
81.2025 -322.074 1421
84.6005 -322.074 1421
88.0605 -322.301 1422
91.6539 -322.981 1425
95.0615 -322.981 1425
98.5382 -323.208 1426
101.948 -323.208 1426
105.358 -323.208 1426
108.768 -323.208 1426
112.178 -323.208 1426
115.345 -322.528 1423
118.664 -322.301 1422
122.065 -322.301 1422
125.465 -322.301 1422
128.956 -322.528 1423
132.359 -322.528 1423
135.762 -322.528 1423
139.165 -322.528 1423
142.568 -322.528 1423
145.765 -322.074 1421
149.163 -322.074 1421
152.561 -322.074 1421
155.959 -322.074 1421
159.245 -321.848 1420
162.641 -321.848 1420
165.335 -320.488 1414
167.881 -318.901 1407
169.907 -316.408 1396
172.004 -314.141 1386
175.318 -314.141 1386
178.117 -313.235 1382
180.109 -310.968 1372
181.786 -308.249 1360
185.038 -308.249 1360
187.598 -307.115 1355
190.275 -306.209 1351
192.503 -304.622 1344
195.717 -304.622 1344
198.487 -303.942 1341
201.242 -303.262 1338
203.984 -302.582 1335
206.245 -301.222 1329
209.423 -301.222 1329
212.601 -301.222 1329
215.779 -301.222 1329
218.957 -301.222 1329
222.135 -301.222 1329
225.313 -301.222 1329
228.835 -301.676 1331
232.018 -301.676 1331
235.201 -301.676 1331
238.384 -301.676 1331
241.566 -301.676 1331
244.749 -301.676 1331
248.118 -301.902 1332
251.303 -301.902 1332
254.871 -302.356 1334
258.254 -302.582 1335
261.642 -302.809 1336
264.837 -302.809 1336
268.032 -302.809 1336
271.227 -302.809 1336
275.038 -303.489 1339
278.24 -303.489 1339
281.442 -303.489 1339
284.644 -303.489 1339
288.061 -303.715 1340
291.265 -303.715 1340
294.469 -303.715 1340
297.896 -303.942 1341
301.103 -303.942 1341
304.309 -303.942 1341
307.516 -303.942 1341
310.723 -303.942 1341
313.93 -303.942 1341
317.373 -304.169 1342
320.582 -304.169 1342
323.791 -304.169 1342
327 -304.169 1342
330.209 -304.169 1342
333.418 -304.169 1342
336.628 -304.169 1342
339.837 -304.169 1342
343.046 -304.169 1342
346.255 -304.169 1342
349.464 -304.169 1342
352.936 -304.395 1343
356.147 -304.395 1343
359.359 -304.395 1343
362.57 -304.395 1343
365.782 -304.395 1343
368.994 -304.395 1343
372.482 -304.622 1344
375.696 -304.622 1344
378.91 -304.622 1344
382.408 -304.849 1345
385.625 -304.849 1345
388.841 -304.849 1345
392.349 -305.075 1346
395.567 -305.075 1346
399.379 -305.529 1348
402.602 -305.529 1348
405.826 -305.529 1348
409.049 -305.529 1348
412.578 -305.755 1349
415.804 -305.755 1349
419.03 -305.755 1349
422.256 -305.755 1349
425.482 -305.755 1349
429.025 -305.982 1350
432.254 -305.982 1350
435.482 -305.982 1350
438.71 -305.982 1350
442.266 -306.209 1351
445.497 -306.209 1351
449.059 -306.435 1352
452.292 -306.435 1352
455.525 -306.435 1352
458.758 -306.435 1352
461.991 -306.435 1352
465.225 -306.435 1352
468.458 -306.435 1352
471.691 -306.435 1352
475.275 -306.662 1353
478.864 -306.889 1354
482.458 -307.115 1355
485.698 -307.115 1355
488.938 -307.115 1355
492.542 -307.342 1356
495.784 -307.342 1356
499.027 -307.342 1356
502.27 -307.342 1356
505.512 -307.342 1356
509.13 -307.569 1357
512.375 -307.569 1357
515.62 -307.569 1357
518.865 -307.569 1357
522.11 -307.569 1357
526.129 -308.022 1359
529.379 -308.022 1359
532.629 -308.022 1359
536.273 -308.249 1360
539.922 -308.475 1361
543.176 -308.475 1361
546.431 -308.475 1361
549.686 -308.475 1361
552.94 -308.475 1361
556.195 -308.475 1361
559.449 -308.475 1361
562.704 -308.475 1361
566.374 -308.702 1362
569.631 -308.702 1362
573.309 -308.928 1363
576.568 -308.928 1363
580.253 -309.155 1364
583.515 -309.155 1364
587.206 -309.382 1365
590.903 -309.608 1366
594.605 -309.835 1367
597.874 -309.835 1367
601.143 -309.835 1367
605.296 -310.288 1369
609.458 -310.742 1371
613.184 -310.968 1372
616.465 -310.968 1372
620.197 -311.195 1373
623.481 -311.195 1373
627.22 -311.422 1374
630.506 -311.422 1374
634.253 -311.648 1375
638.932 -312.328 1378
642.693 -312.555 1379
645.991 -312.555 1379
649.288 -312.555 1379
653.059 -312.782 1380
656.359 -312.782 1380
659.659 -312.782 1380
662.959 -312.782 1380
666.259 -312.782 1380
669.559 -312.782 1380
669.934 -311.422 1374
673.219 -311.422 1374
676.997 -311.648 1375
680.285 -311.648 1375
683.574 -311.648 1375
686.862 -311.648 1375
687.138 -310.288 1369
690.412 -310.288 1369
693.685 -310.288 1369
695.941 -309.835 1367
2619.51 -926.785 4089
2629.28 -926.785 4089
2639.06 -926.785 4089
2616.45 -915.453 4039
2607.25 -908.88 4010
2610.97 -906.84 4001
2620.54 -906.84 4001
2630.1 -906.84 4001
2639.67 -906.84 4001
2624.08 -898.227 3963
2646.18 -902.534 3982
2655.7 -902.534 3982
2665.23 -902.534 3982
2680.79 -904.573 3991
2690.34 -904.573 3991
2699.88 -904.573 3991
2709.42 -904.573 3991
2718.97 -904.573 3991
2728.51 -904.573 3991
2718.85 -898.227 3963
2715.24 -893.921 3944
2718.46 -891.881 3935
2695.98 -881.455 3889
2705.28 -881.455 3889
2702.01 -877.375 3871
2679.75 -867.176 3826
2683.28 -865.362 3818
2692.41 -865.362 3818
2683.14 -859.469 3792
2673.75 -853.576 3766
2682.75 -853.576 3766
2691.76 -853.576 3766
2694.31 -851.536 3757
2697.54 -849.723 3749
2670.41 -838.391 3699
2661.87 -832.951 3675
2670.66 -832.951 3675
2661.22 -827.285 3650
2658.97 -823.885 3635
2655.92 -820.258 3619
2664.58 -820.258 3619
2667.32 -818.445 3611
2664.1 -814.819 3595
2661.55 -811.419 3580
2670.11 -811.419 3580
2655.47 -804.393 3549
2658.7 -802.806 3542
2661.15 -800.993 3534
2669.6 -800.993 3534
2678.05 -800.993 3534
2686.5 -800.993 3534
2684.28 -797.82 3520
2681.22 -794.42 3505
-1182.98 -354.327 1580
-1181.45 -355 1583
-1179.89 -355.673 1586
-1178.32 -356.346 1589
-1174.52 -356.346 1589
-1172.93 -357.018 1592
-1169.86 -357.243 1593
-1168.25 -357.915 1596
-1164.43 -357.915 1596
-1166.43 -359.71 1604
-1169.12 -361.728 1613
-1170.32 -363.298 1620
-1166.45 -363.298 1620
-1166.88 -364.643 1626
-1165.14 -365.316 1629
-1164.81 -366.437 1634
-1160.9 -366.437 1634
-1164.07 -368.68 1644
-1165.79 -370.474 1652
-1168.87 -372.716 1662
-1164.89 -372.716 1662
-1168.6 -375.183 1673
-1164.6 -375.183 1673
-1161.99 -375.632 1675
-1157.98 -375.632 1675
-1158.8 -377.202 1682
-1158.21 -378.323 1687
-1158.97 -379.893 1694
-1154.92 -379.893 1694
-1155.62 -381.463 1701
-1153.58 -382.135 1704
-1158.95 -385.275 1718
-1154.84 -385.275 1718
-1155.42 -386.845 1725
-1155.3 -388.19 1731
-1157.82 -390.433 1741
-1153.65 -390.433 1741
-1160.71 -394.245 1758
-1169.01 -398.506 1777
-1164.76 -398.506 1777
-1165.08 -400.076 1784
-1173.83 -404.561 1804
-1169.51 -404.561 1804
-1165.2 -404.561 1804
-1161.53 -404.785 1805
-1159.78 -405.682 1809
-1160.56 -407.476 1817
-1156.22 -407.476 1817
-1153.14 -407.925 1819
-1150.05 -408.373 1821
-1148.22 -409.27 1825
-1143.85 -409.27 1825
-1141.99 -410.168 1829
-1141.34 -411.513 1835
-1144.39 -414.204 1847
-1139.97 -414.204 1847
-1141.09 -416.222 1856
-1145.23 -419.362 1870
-1149.9 -422.726 1885
-1145.4 -422.726 1885
-1143.31 -423.623 1889
-1144.22 -425.641 1898
-1147.49 -428.557 1911
-1142.92 -428.557 1911
-1143.71 -430.575 1920
-1145.64 -433.042 1931
-1145.16 -434.612 1938
-1140.53 -434.612 1938
-1142.34 -437.078 1949
-1141.77 -438.648 1956
-1142.32 -440.667 1965
-1137.62 -440.667 1965
-1136.96 -442.236 1972
-1135.11 -443.358 1977
-1134.39 -444.927 1984
-1129.64 -444.927 1984
-1132.84 -448.067 1998
-1134.83 -450.758 2010
-1136.77 -453.449 2022
-1131.94 -453.449 2022
-1136.58 -457.262 2039
-1136.14 -459.056 2047
-1131.25 -459.056 2047
-1140.11 -464.662 2072
-1143.92 -468.25 2088
-1148.75 -472.287 2106
-1143.71 -472.287 2106
-1143 -474.081 2114
-1139.56 -474.754 2117
-1138.78 -476.548 2125
-1133.7 -476.548 2125
-1136.06 -479.687 2139
-1138.34 -482.827 2153
-1137.41 -484.621 2161
-1132.24 -484.621 2161
-1132.81 -487.088 2172
-1134.88 -490.228 2186
-1142.06 -495.61 2210
-1136.77 -495.61 2210
-1141.73 -500.095 2230
-1150.15 -506.15 2257
-1155.92 -511.084 2279
-1150.47 -511.084 2279
-1156.07 -516.017 2301
-1152.07 -516.69 2304
-1151.53 -518.933 2314
-1146 -518.933 2314
-1148.35 -522.521 2330
-1154.06 -527.679 2353
-1151.85 -529.248 2360
-1146.21 -529.248 2360
-1142.01 -529.921 2363
-1147.9 -535.303 2387
-1151.77 -539.789 2407
-1146.01 -539.789 2407
-1146.89 -542.928 2421
-1147.7 -546.068 2435
-1141.87 -546.068 2435
-1146.32 -551.001 2457
-1148.79 -555.038 2475
-1153.04 -559.972 2497
-1147.06 -559.972 2497
-1141.09 -559.972 2497
-1138.76 -561.766 2505
-1134.58 -562.663 2509
-1128.58 -562.663 2509
-1123.92 -563.336 2512
-1117.91 -563.336 2512
-1111.91 -563.336 2512
-1105.9 -563.336 2512
-1101.64 -564.233 2516
-1095.63 -564.233 2516
-1089.61 -564.233 2516
-1083.59 -564.233 2516
-1085.71 -568.494 2535
-1091.58 -574.773 2563
-1087.14 -575.67 2567
-1081 -575.67 2567
-1074.87 -575.67 2567
-1067.06 -574.773 2563
-1067.14 -578.137 2578
-1060.98 -578.137 2578
-1065.04 -583.743 2603
-1060.44 -584.64 2607
-1062.3 -589.125 2627
-1056.02 -589.125 2627
-1073.31 -602.356 2686
-1075.63 -607.29 2708
-1072.7 -609.308 2717
-1066.21 -609.308 2717
-1059.71 -609.308 2717
-1046.13 -620.521 2767
-1039.51 -620.521 2767
-1032.89 -620.521 2767
-1055.82 -655.281 2922
-1048.83 -655.281 2922
-1085.34 -682.641 3044
-1078.06 -682.641 3044
-1072.89 -683.986 3050
-1071.54 -687.799 3067
-1065.94 -688.92 3072
-1058.59 -688.92 3072
-1057.07 -692.732 3089
-1049.68 -692.732 3089
-1042.29 -692.732 3089
-1033.23 -691.611 3084
-1025.85 -691.611 3084
-1029.71 -699.236 3118
-1032.09 -705.964 3148
-1024.56 -705.964 3148
-1036.42 -719.419 3208
-1034.84 -723.68 3227
-1033.17 -727.941 3246
-1025.41 -727.941 3246
-1017.64 -727.941 3246
-1011.75 -729.286 3252
-1005.83 -730.632 3258
-998.034 -730.632 3258
-994.195 -733.547 3271
-986.373 -733.547 3271
-984.235 -737.808 3290
-976.368 -737.808 3290
-974.388 -742.293 3310
-968.516 -743.863 3317
-964.349 -746.779 3330
-956.386 -746.779 3330
-950.417 -748.348 3337
-946.108 -751.264 3350
-938.098 -751.264 3350
-930.087 -751.264 3350
-925.654 -754.179 3363
-917.612 -754.179 3363
-911.463 -755.749 3370
-903.405 -755.749 3370
-895.346 -755.749 3370
-887.287 -755.749 3370
-886.534 -762.028 3398
-878.408 -762.028 3398
-877.454 -768.307 3426
-871.037 -769.877 3433
-862.828 -769.877 3433
-854.619 -769.877 3433
-849.861 -773.017 3447
-841.618 -773.017 3447
-835.068 -774.586 3454
-826.808 -774.586 3454
-821.866 -777.726 3468
-822.253 -786.024 3505
-815.497 -787.593 3512
-807.099 -787.593 3512
-798.701 -787.593 3512
-788.727 -786.024 3505
-783.685 -789.387 3520
-775.268 -789.387 3520
-766.85 -789.387 3520
-759.941 -790.957 3527
-754.703 -794.321 3542
-746.233 -794.321 3542
-744.012 -801.049 3572
-738.765 -804.637 3588
-731.609 -806.207 3595
-723.012 -806.207 3595
-714.416 -806.207 3595
-705.819 -806.207 3595
-697.222 -806.207 3595
-688.625 -806.207 3595
-680.029 -806.207 3595
-670.125 -804.637 3588
-661.545 -804.637 3588
-652.965 -804.637 3588
-638.817 -797.685 3557
-624.995 -790.957 3527
-616.561 -790.957 3527
-608.127 -790.957 3527
-599.693 -790.957 3527
-591.259 -790.957 3527
-590.261 -801.049 3572
-583.022 -802.843 3580
-574.461 -802.843 3580
-565.9 -802.843 3580
-557.339 -802.843 3580
-548.778 -802.843 3580
-537.954 -799.479 3565
-528.241 -797.685 3557
-517.543 -794.321 3542
-509.073 -794.321 3542
-500.603 -794.321 3542
-489.077 -789.387 3520
-179.431 -316.876 1413
-176.052 -316.876 1413
-172.673 -316.876 1413
-169.054 -316.428 1411
-165.445 -315.979 1409
-161.961 -315.755 1408
-158.819 -316.203 1410
-155.448 -316.203 1410
-152.184 -316.428 1411
-148.81 -316.428 1411
-145.436 -316.428 1411
-141.961 -316.203 1410
-138.589 -316.203 1410
-135.217 -316.203 1410
-131.846 -316.203 1410
-128.474 -316.203 1410
-125.102 -316.203 1410
-121.73 -316.203 1410
-118.359 -316.203 1410
-114.579 -315.082 1405
-111.219 -315.082 1405
-108.013 -315.531 1407
-104.649 -315.531 1407
-101.284 -315.531 1407
-97.7106 -314.858 1404
-94.286 -314.634 1403
-90.8662 -314.409 1402
-87.5136 -314.409 1402
-84.161 -314.409 1402
-80.7507 -314.185 1401
-77.3453 -313.961 1400
-73.9975 -313.961 1400
-70.6496 -313.961 1400
-67.3499 -314.185 1401
-63.9997 -314.185 1401
-60.6927 -314.409 1402
-57.3401 -314.409 1402
-53.9875 -314.409 1402
-50.5988 -314.185 1401
-47.316 -314.634 1403
-43.961 -314.634 1403
-40.635 -314.858 1404
-37.2776 -314.858 1404
-33.9202 -314.858 1404
-30.541 -314.634 1403
-27.1667 -314.409 1402
-23.8311 -314.634 1403
-20.4761 -314.634 1403
-17.1211 -314.634 1403
-13.7661 -314.634 1403
-10.4185 -314.858 1404
-7.06612 -315.082 1405
-3.71162 -315.531 1407
-0.347053 -315.531 1407
3.01966 -315.755 1408
6.39115 -315.979 1409
9.76049 -315.979 1409
13.1298 -315.979 1409
16.4992 -315.979 1409
19.8685 -315.979 1409
23.2379 -315.979 1409
26.6072 -315.979 1409
29.9766 -315.979 1409
33.3696 -316.203 1410
36.7674 -316.428 1411
40.1415 -316.428 1411
43.5156 -316.428 1411
46.9895 -317.101 1414
50.3708 -317.101 1414
53.7521 -317.101 1414
57.2142 -317.549 1416
60.6431 -317.773 1417
64.1219 -318.222 1419
67.5152 -318.222 1419
70.9584 -318.446 1420
74.354 -318.446 1420
77.8045 -318.67 1421
81.2025 -318.67 1421
84.6005 -318.67 1421
88.0605 -318.895 1422
91.4609 -318.895 1422
94.8614 -318.895 1422
98.5382 -319.792 1426
101.948 -319.792 1426
105.358 -319.792 1426
108.768 -319.792 1426
112.178 -319.792 1426
115.345 -319.119 1423
118.748 -319.119 1423
122.151 -319.119 1423
125.553 -319.119 1423
129.138 -319.567 1425
132.545 -319.567 1425
135.953 -319.567 1425
139.36 -319.567 1425
142.768 -319.567 1425
146.176 -319.567 1425
149.583 -319.567 1425
152.991 -319.567 1425
156.398 -319.567 1425
159.47 -318.895 1422
162.87 -318.895 1422
165.686 -317.773 1417
168.716 -317.101 1414
171.367 -315.755 1408
174.734 -315.755 1408
177.342 -314.409 1402
180.566 -314.185 1401
182.472 -311.718 1390
184.727 -309.924 1382
188.032 -309.924 1382
190.367 -308.354 1375
192.529 -306.56 1367
194.652 -304.766 1359
197.901 -304.766 1359
200.263 -303.421 1353
203.198 -302.972 1351
205.664 -301.851 1346
208.262 -300.954 1342
211.471 -300.954 1342
214.521 -300.73 1341
217.727 -300.73 1341
220.769 -300.505 1340
223.974 -300.505 1340
227.009 -300.281 1339
230.21 -300.281 1339
233.412 -300.281 1339
236.614 -300.281 1339
239.816 -300.281 1339
242.837 -300.057 1338
246.036 -300.057 1338
249.236 -300.057 1338
252.247 -299.833 1337
255.635 -300.057 1338
259.028 -300.281 1339
262.23 -300.281 1339
265.432 -300.281 1339
268.835 -300.505 1340
272.039 -300.505 1340
275.654 -300.954 1342
278.863 -300.954 1342
282.072 -300.954 1342
285.281 -300.954 1342
288.491 -300.954 1342
291.7 -300.954 1342
294.909 -300.954 1342
298.118 -300.954 1342
301.327 -300.954 1342
304.536 -300.954 1342
307.745 -300.954 1342
310.954 -300.954 1342
314.164 -300.954 1342
317.846 -301.402 1344
321.06 -301.402 1344
324.274 -301.402 1344
327.487 -301.402 1344
330.701 -301.402 1344
333.915 -301.402 1344
337.129 -301.402 1344
340.343 -301.402 1344
343.557 -301.402 1344
346.513 -301.178 1343
349.724 -301.178 1343
352.936 -301.178 1343
356.147 -301.178 1343
359.627 -301.402 1344
362.84 -301.402 1344
366.054 -301.402 1344
369.268 -301.402 1344
372.482 -301.402 1344
375.696 -301.402 1344
378.91 -301.402 1344
382.408 -301.627 1345
385.911 -301.851 1346
389.13 -301.851 1346
392.349 -301.851 1346
395.567 -301.851 1346
399.379 -302.3 1348
402.602 -302.3 1348
405.826 -302.3 1348
409.352 -302.524 1349
412.578 -302.524 1349
415.804 -302.524 1349
419.03 -302.524 1349
422.256 -302.524 1349
425.482 -302.524 1349
429.025 -302.748 1350
432.254 -302.748 1350
435.482 -302.748 1350
438.71 -302.748 1350
441.939 -302.748 1350
445.167 -302.748 1350
449.059 -303.197 1352
452.292 -303.197 1352
455.525 -303.197 1352
458.758 -303.197 1352
461.991 -303.197 1352
465.225 -303.197 1352
468.458 -303.197 1352
471.691 -303.197 1352
475.275 -303.421 1353
478.51 -303.421 1353
482.102 -303.645 1354
485.34 -303.645 1354
488.938 -303.869 1355
492.542 -304.094 1356
495.784 -304.094 1356
499.027 -304.094 1356
502.27 -304.094 1356
505.512 -304.094 1356
508.755 -304.094 1356
512.375 -304.318 1357
515.62 -304.318 1357
518.865 -304.318 1357
522.11 -304.318 1357
526.129 -304.766 1359
529.379 -304.766 1359
532.629 -304.766 1359
536.273 -304.991 1360
539.922 -305.215 1361
543.176 -305.215 1361
546.431 -305.215 1361
549.686 -305.215 1361
552.94 -305.215 1361
556.195 -305.215 1361
559.449 -305.215 1361
562.704 -305.215 1361
566.374 -305.439 1362
569.631 -305.439 1362
573.309 -305.663 1363
576.568 -305.663 1363
580.253 -305.888 1364
583.515 -305.888 1364
587.206 -306.112 1365
590.903 -306.336 1366
594.605 -306.56 1367
597.874 -306.56 1367
601.143 -306.56 1367
604.411 -306.56 1367
609.014 -307.233 1370
612.737 -307.457 1371
616.015 -307.457 1371
619.746 -307.682 1372
623.481 -307.906 1373
626.764 -307.906 1373
630.047 -307.906 1373
633.792 -308.13 1374
638.005 -308.579 1376
642.227 -309.027 1378
645.522 -309.027 1378
648.818 -309.027 1378
652.586 -309.251 1379
655.884 -309.251 1379
659.181 -309.251 1379
661.998 -309.027 1378
665.294 -309.027 1378
668.589 -309.027 1378
669.934 -308.13 1374
673.219 -308.13 1374
676.997 -308.354 1375
680.285 -308.354 1375
683.574 -308.354 1375
686.862 -308.354 1375
688.142 -307.457 1371
691.42 -307.457 1371
694.699 -307.457 1371
695.941 -306.56 1367
2619.51 -916.99 4089
2629.28 -916.99 4089
2639.06 -916.99 4089
2648.84 -916.99 4089
2626.11 -905.777 4039
2629.89 -903.759 4030
2639.53 -903.759 4030
2642.59 -901.516 4020
2652.21 -901.516 4020
2649.24 -897.255 4001
2684.06 -905.777 4039
2693.72 -905.777 4039
2703.38 -905.777 4039
2713.03 -905.777 4039
2722.69 -905.777 4039
2732.35 -905.777 4039
2716.21 -897.255 4001
2725.78 -897.255 4001
2735.35 -897.255 4001
2738.05 -895.013 3991
2747.6 -895.013 3991
2730.89 -886.491 3953
2727.86 -882.454 3935
2737.27 -882.454 3935
2708.29 -870.12 3880
2692.36 -862.047 3844
2695.22 -860.029 3835
2704.4 -860.029 3835
2701.54 -856.216 3818
2685.82 -848.367 3783
2694.86 -848.367 3783
2703.91 -848.367 3783
2712.96 -848.367 3783
2709.77 -844.555 3766
2682.68 -833.342 3716
2667.66 -825.941 3683
2676.47 -825.941 3683
2673.61 -822.353 3667
2669.95 -818.541 3650
2655.92 -811.589 3619
2664.58 -811.589 3619
2667.32 -809.795 3611
2670.03 -808.001 3603
2661.55 -802.843 3580
2670.11 -802.843 3580
2661.46 -797.685 3557
2663.96 -795.891 3549
2667.17 -794.321 3542
2675.65 -794.321 3542
2684.11 -794.321 3542
2686.5 -792.527 3534
2694.95 -792.527 3534
2686.58 -787.593 3512
-1180.74 -349.877 1577
-1179.21 -350.542 1580
-1178.4 -351.43 1584
-1176.1 -351.874 1586
-1172.31 -351.874 1586
-1170.72 -352.539 1589
-1169.13 -353.205 1592
-1166.05 -353.427 1593
-1162.24 -353.427 1593
-1166.43 -355.867 1604
-1168.4 -357.642 1612
-1170.32 -359.417 1620
-1166.45 -359.417 1620
-1165.44 -360.304 1624
-1164.42 -361.192 1628
-1163.38 -362.079 1632
-1159.48 -362.079 1632
-1158.41 -362.967 1636
-1164.37 -366.073 1650
-1162.54 -366.738 1653
-1158.59 -366.738 1653
-1166.51 -370.51 1670
-1162.51 -370.51 1670
-1160.6 -371.176 1673
-1156.6 -371.176 1673
-1157.42 -372.729 1680
-1158.21 -374.282 1687
-1158.97 -375.835 1694
-1154.92 -375.835 1694
-1155.62 -377.388 1701
-1153.58 -378.053 1704
-1158.95 -381.159 1718
-1154.84 -381.159 1718
-1155.42 -382.712 1725
-1155.3 -384.044 1731
-1157.15 -386.04 1740
-1152.99 -386.04 1740
-1156.75 -388.703 1752
-1166.38 -393.362 1773
-1162.14 -393.362 1773
-1162.47 -394.915 1780
-1168.62 -398.465 1796
-1169.51 -400.24 1804
-1165.2 -400.24 1804
-1161.53 -400.461 1805
-1158.5 -400.905 1807
-1159.29 -402.68 1815
-1154.94 -402.68 1815
-1151.87 -403.124 1817
-1148.79 -403.568 1819
-1150.73 -405.786 1829
-1146.36 -405.786 1829
-1144.48 -406.674 1833
-1143.83 -408.005 1839
-1147.49 -410.889 1852
-1143.06 -410.889 1852
-1144.78 -413.108 1862
-1153.19 -417.767 1883
-1156.61 -420.651 1896
-1152.08 -420.651 1896
-1156.63 -423.979 1911
-1154.47 -424.866 1915
-1152.89 -425.976 1920
-1148.3 -425.976 1920
-1147.28 -427.307 1926
-1148.02 -429.304 1935
-1148.71 -431.3 1944
-1144.06 -431.3 1944
-1142.34 -432.41 1949
-1142.93 -434.406 1958
-1145.23 -437.069 1970
-1140.52 -437.069 1970
-1138.11 -437.956 1974
-1136.26 -439.065 1979
-1134.39 -440.175 1984
-1129.64 -440.175 1984
-1132.84 -443.281 1998
-1134.83 -445.943 2010
-1136.77 -448.606 2022
-1131.94 -448.606 2022
-1136.58 -452.377 2039
-1136.14 -454.152 2047
-1131.25 -454.152 2047
-1139.01 -459.255 2070
-1142.28 -462.583 2085
-1148.75 -467.242 2106
-1143.71 -467.242 2106
-1143 -469.017 2114
-1139.56 -469.682 2117
-1138.78 -471.457 2125
-1133.7 -471.457 2125
-1140.31 -476.338 2147
-1139.4 -478.113 2155
-1140.56 -480.776 2167
-1135.38 -480.776 2167
-1134.37 -482.55 2175
-1138 -486.322 2192
-1142.06 -490.316 2210
-1136.77 -490.316 2210
-1143.26 -495.418 2233
-1155.25 -502.962 2267
-1158.96 -506.955 2285
-1153.49 -506.955 2285
-1156.07 -510.505 2301
-1153.57 -511.836 2307
-1153.03 -514.055 2317
-1147.49 -514.055 2317
-1148.35 -516.939 2330
-1154.06 -522.042 2353
-1153.32 -524.261 2363
-1147.66 -524.261 2363
-1146.85 -526.479 2373
-1147.9 -529.585 2387
-1151.77 -534.023 2407
-1146.01 -534.023 2407
-1152.1 -539.569 2432
-1149.58 -541.122 2439
-1143.75 -541.122 2439
-1143.05 -543.563 2450
-1148.79 -549.109 2475
-1153.04 -553.99 2497
-1147.06 -553.99 2497
-1141.09 -553.99 2497
-1136.94 -554.878 2501
-1130.96 -554.878 2501
-1124.98 -554.878 2501
-1122.58 -556.652 2509
-1116.58 -556.652 2509
-1111.91 -557.318 2512
-1105.9 -557.318 2512
-1101.64 -558.206 2516
-1095.63 -558.206 2516
-1089.61 -558.206 2516
-1083.59 -558.206 2516
-1087.43 -563.308 2539
-1091.58 -568.633 2563
-1087.14 -569.521 2567
-1081 -569.521 2567
-1074.87 -569.521 2567
-1067.06 -568.633 2563
-1067.14 -571.961 2578
-1060.98 -571.961 2578
-1065.04 -577.508 2603
-1060.44 -578.395 2607
-1054.21 -578.395 2607
-1047.98 -578.395 2607
-1051.84 -645.841 2911
-1048.83 -648.282 2922
-1073.57 -668.027 3011
-1066.37 -668.027 3011
-1063.04 -670.468 3022
-1063.5 -675.349 3044
-1060.04 -677.789 3055
-1052.74 -677.789 3055
-1055.35 -684.223 3084
-1047.98 -684.223 3084
-1040.6 -684.223 3084
-1031.22 -682.892 3078
-1025.85 -684.223 3084
-1029.71 -691.767 3118
-1032.09 -698.422 3148
-1024.56 -698.422 3148
-1036.42 -711.734 3208
-1034.84 -715.95 3227
-1033.17 -720.165 3246
-1025.41 -720.165 3246
-1019.53 -721.496 3252
-1013.62 -722.827 3258
-1007.99 -724.38 3265
-1000.18 -724.38 3265
-994.195 -725.712 3271
-992.102 -729.927 3290
-990.218 -734.364 3310
-982.303 -734.364 3310
-980.275 -738.801 3330
-978.152 -743.239 3350
-973.906 -746.123 3363
-965.864 -746.123 3363
-959.816 -747.676 3370
-959.665 -753.888 3398
-951.539 -753.888 3398
-943.413 -753.888 3398
-937.214 -755.441 3405
-930.982 -756.994 3412
-926.609 -760.1 3426
-918.417 -760.1 3426
-910.224 -760.1 3426
-902.032 -760.1 3426
-895.665 -761.653 3433
-887.456 -761.653 3433
-882.832 -764.759 3447
-876.365 -766.312 3454
-868.106 -766.312 3454
-859.846 -766.312 3454
-855.038 -769.418 3468
-846.745 -769.418 3468
-843.771 -774.299 3490
-835.426 -774.299 3490
-830.635 -777.627 3505
-827.414 -782.508 3527
-818.98 -782.508 3527
-810.546 -782.508 3527
-802.112 -782.508 3527
-793.678 -782.508 3527
-790.142 -787.389 3549
-781.655 -787.389 3549
-773.168 -787.389 3549
-764.682 -787.389 3549
-764.505 -796.042 3588
-755.925 -796.042 3588
-755.468 -804.695 3627
-746.795 -804.695 3627
-738.121 -804.695 3627
-729.448 -804.695 3627
-720.775 -804.695 3627
-713.672 -806.469 3635
-706.338 -808.022 3642
-697.628 -808.022 3642
-688.919 -808.022 3642
-680.21 -808.022 3642
-671.501 -808.022 3642
-662.792 -808.022 3642
-649.952 -802.92 3619
-634.387 -794.267 3580
-625.826 -794.267 3580
-617.265 -794.267 3580
-608.704 -794.267 3580
-591.259 -782.508 3527
-590.261 -792.492 3572
-589.373 -802.92 3619
-580.719 -802.92 3619
-572.065 -802.92 3619
-563.411 -802.92 3619
-554.757 -802.92 3619
-540.218 -794.267 3580
-528.241 -789.164 3557
-200.27 -314.379 1417
-196.881 -314.379 1417
-193.493 -314.379 1417
-190.104 -314.379 1417
-186.716 -314.379 1417
-183.198 -314.157 1416
-179.685 -313.935 1415
-176.177 -313.713 1414
-172.795 -313.713 1414
-169.294 -313.491 1413
-165.563 -312.826 1410
-162.076 -312.604 1409
-158.707 -312.604 1409
-155.337 -312.604 1409
-152.076 -312.826 1410
-148.704 -312.826 1410
-145.333 -312.826 1410
-141.961 -312.826 1410
-138.589 -312.826 1410
-135.217 -312.826 1410
-131.846 -312.826 1410
-128.383 -312.604 1409
-125.013 -312.604 1409
-121.558 -312.382 1408
-118.191 -312.382 1408
-114.579 -311.717 1405
-111.219 -311.717 1405
-107.86 -311.717 1405
-104.5 -311.717 1405
-101.14 -311.717 1405
-97.7106 -311.495 1404
-94.286 -311.273 1403
-90.8014 -310.829 1401
-87.4512 -310.829 1401
-84.101 -310.829 1401
-80.7507 -310.829 1401
-77.3453 -310.607 1400
-73.9975 -310.607 1400
-70.6496 -310.607 1400
-67.3018 -310.607 1400
-63.9997 -310.829 1401
-60.6927 -311.051 1402
-57.3401 -311.051 1402
-53.9875 -311.051 1402
-50.5988 -310.829 1401
-47.2823 -311.051 1402
-43.9297 -311.051 1402
-40.635 -311.495 1404
-37.2776 -311.495 1404
-33.9202 -311.495 1404
-30.5193 -311.051 1402
-27.1667 -311.051 1402
-23.8311 -311.273 1403
-20.4761 -311.273 1403
-17.1211 -311.273 1403
-13.7661 -311.273 1403
-10.4111 -311.273 1403
-7.05606 -311.273 1403
-3.7037 -311.495 1404
-0.346313 -311.495 1404
3.01322 -311.717 1405
6.38661 -312.382 1408
9.75356 -312.382 1408
13.1205 -312.382 1408
16.4523 -311.717 1405
19.8121 -311.717 1405
23.2214 -312.382 1408
26.5883 -312.382 1408
29.9553 -312.382 1408
33.3222 -312.382 1408
36.7153 -312.604 1409
40.0846 -312.604 1409
43.4848 -312.826 1410
46.8898 -313.048 1411
50.2639 -313.048 1411
53.638 -313.048 1411
57.1334 -313.713 1414
60.5575 -313.935 1415
63.9863 -314.157 1416
67.3724 -314.157 1416
70.8085 -314.379 1417
74.197 -314.379 1417
77.6949 -314.823 1419
81.0882 -314.823 1419
84.4815 -314.823 1419
87.9986 -315.266 1421
91.4609 -315.488 1422
94.8614 -315.488 1422
98.2618 -315.488 1422
101.877 -316.154 1425
105.284 -316.154 1425
108.692 -316.154 1425
111.942 -315.71 1423
115.345 -315.71 1423
118.748 -315.71 1423
122.151 -315.71 1423
125.553 -315.71 1423
129.138 -316.154 1425
132.545 -316.154 1425
135.953 -316.154 1425
139.36 -316.154 1425
142.768 -316.154 1425
146.176 -316.154 1425
149.583 -316.154 1425
152.991 -316.154 1425
156.398 -316.154 1425
159.582 -315.71 1423
162.985 -315.71 1423
166.154 -315.266 1421
169.074 -314.379 1417
172.098 -313.713 1414
175.479 -313.713 1414
178.354 -312.826 1410
181.339 -312.16 1407
184.31 -311.495 1404
187.133 -310.607 1400
190.481 -310.607 1400
192.859 -309.054 1393
194.219 -305.948 1379
196.227 -303.951 1370
199.503 -303.951 1370
202.039 -302.842 1365
204.1 -301.067 1357
206.734 -300.18 1353
209.969 -300.18 1353
212.732 -299.514 1350
215.96 -299.514 1350
219.026 -299.292 1349
221.758 -298.627 1346
224.977 -298.627 1346
228.026 -298.405 1345
231.242 -298.405 1345
234.458 -298.405 1345
237.675 -298.405 1345
240.891 -298.405 1345
243.926 -298.183 1344
247.14 -298.183 1344
250.354 -298.183 1344
253.19 -297.739 1342
256.017 -297.295 1340
259.608 -297.739 1342
262.818 -297.739 1342
266.027 -297.739 1342
269.436 -297.961 1343
272.648 -297.961 1343
276.065 -298.183 1344
279.279 -298.183 1344
282.493 -298.183 1344
285.919 -298.405 1345
289.135 -298.405 1345
292.352 -298.405 1345
295.568 -298.405 1345
298.784 -298.405 1345
302.001 -298.405 1345
305.217 -298.405 1345
308.204 -298.183 1344
311.418 -298.183 1344
314.632 -298.183 1344
318.082 -298.405 1345
321.298 -298.405 1345
324.515 -298.405 1345
327.731 -298.405 1345
330.947 -298.405 1345
334.164 -298.405 1345
337.129 -298.183 1344
340.343 -298.183 1344
343.813 -298.405 1345
347.029 -298.405 1345
350.245 -298.405 1345
353.462 -298.405 1345
356.678 -298.405 1345
359.894 -298.405 1345
363.11 -298.405 1345
366.327 -298.405 1345
369.543 -298.405 1345
372.759 -298.405 1345
375.976 -298.405 1345
379.192 -298.405 1345
382.693 -298.627 1346
385.911 -298.627 1346
389.13 -298.627 1346
392.932 -299.07 1348
396.155 -299.07 1348
399.675 -299.292 1349
402.901 -299.292 1349
406.127 -299.292 1349
409.352 -299.292 1349
412.578 -299.292 1349
415.804 -299.292 1349
419.03 -299.292 1349
422.256 -299.292 1349
425.482 -299.292 1349
428.708 -299.292 1349
432.254 -299.514 1350
435.482 -299.514 1350
438.71 -299.514 1350
442.266 -299.736 1351
445.497 -299.736 1351
448.727 -299.736 1351
452.292 -299.958 1352
455.525 -299.958 1352
458.758 -299.958 1352
461.991 -299.958 1352
465.225 -299.958 1352
468.458 -299.958 1352
471.691 -299.958 1352
475.275 -300.18 1353
478.51 -300.18 1353
482.102 -300.402 1354
485.34 -300.402 1354
488.938 -300.623 1355
492.542 -300.845 1356
495.784 -300.845 1356
499.027 -300.845 1356
502.27 -300.845 1356
505.512 -300.845 1356
508.755 -300.845 1356
512.375 -301.067 1357
515.62 -301.067 1357
518.865 -301.067 1357
522.11 -301.067 1357
526.129 -301.511 1359
529.379 -301.511 1359
532.629 -301.511 1359
536.273 -301.733 1360
539.922 -301.955 1361
543.176 -301.955 1361
546.431 -301.955 1361
549.686 -301.955 1361
552.94 -301.955 1361
556.195 -301.955 1361
559.449 -301.955 1361
562.704 -301.955 1361
566.374 -302.176 1362
569.631 -302.176 1362
573.309 -302.398 1363
576.568 -302.398 1363
580.253 -302.62 1364
583.515 -302.62 1364
587.206 -302.842 1365
590.903 -303.064 1366
594.605 -303.286 1367
597.874 -303.286 1367
601.143 -303.286 1367
604.411 -303.286 1367
609.014 -303.951 1370
612.737 -304.173 1371
616.015 -304.173 1371
619.746 -304.395 1372
623.481 -304.617 1373
626.764 -304.617 1373
630.047 -304.617 1373
633.792 -304.839 1374
638.005 -305.283 1376
642.227 -305.726 1378
645.522 -305.726 1378
648.818 -305.726 1378
652.586 -305.948 1379
655.884 -305.948 1379
659.181 -305.948 1379
661.998 -305.726 1378
665.294 -305.726 1378
668.589 -305.726 1378
669.934 -304.839 1374
673.219 -304.839 1374
677.49 -305.283 1376
680.78 -305.283 1376
684.071 -305.283 1376
687.361 -305.283 1376
688.644 -304.395 1372
692.429 -304.617 1373
696.219 -304.839 1374
699.505 -304.839 1374
702.79 -304.839 1374
2619.51 -907.195 4089
2629.28 -907.195 4089
2639.06 -907.195 4089
2648.84 -907.195 4089
2658.62 -907.195 4089
2668.4 -907.195 4089
2678.17 -907.195 4089
2674.8 -902.758 4069
2684.53 -902.758 4069
2687.64 -900.539 4059
2697.35 -900.539 4059
2700.39 -898.32 4049
2723.46 -902.758 4069
2733.19 -902.758 4069
2742.92 -902.758 4069
2752.65 -902.758 4069
2762.38 -902.758 4069
2765.29 -900.539 4059
2775 -900.539 4059
2784.71 -900.539 4059
2774.45 -894.105 4030
2764.05 -887.671 4001
2753.51 -881.237 3972
2763.01 -881.237 3972
2739.7 -870.81 3925
2711.27 -858.829 3871
2714.2 -856.832 3862
2723.44 -856.832 3862
2713.57 -850.842 3835
2704.28 -845.073 3809
2713.39 -845.073 3809
2722.49 -845.073 3809
2725.15 -843.077 3800
2722 -839.305 3783
2688.46 -826.215 3724
2667.66 -817.119 3683
2676.47 -817.119 3683
2673.61 -813.569 3667
2669.95 -809.797 3650
2655.92 -802.92 3619
2664.58 -802.92 3619
2673.23 -802.92 3619
2675.96 -801.145 3611
2661.55 -794.267 3580
2670.11 -794.267 3580
2661.46 -789.164 3557
2663.96 -787.389 3549
2672.45 -787.389 3549
2680.93 -787.389 3549
2689.42 -787.389 3549
2692.58 -785.836 3542
2694.95 -784.061 3534
2686.58 -779.18 3512
-1179.24 -345.66 1575
-1177.71 -346.319 1578
-1177.66 -347.416 1583
-1176.1 -348.074 1586
-1172.31 -348.074 1586
-1170.72 -348.733 1589
-1167.66 -348.952 1590
-1165.32 -349.391 1592
-1161.51 -349.391 1592
-1162.8 -350.927 1599
-1166.95 -353.342 1610
-1168.15 -354.878 1617
-1164.29 -354.878 1617
-1164.73 -356.195 1623
-1162.99 -356.853 1626
-1162.67 -357.95 1631
-1158.77 -357.95 1631
-1158.41 -359.048 1636
-1162.96 -361.681 1648
-1162.54 -362.779 1653
-1158.59 -362.779 1653
-1166.51 -366.51 1670
-1162.51 -366.51 1670
-1158.52 -366.51 1670
-1154.53 -366.51 1670
-1156.04 -368.265 1678
-1158.21 -370.24 1687
-1158.97 -371.777 1694
-1154.92 -371.777 1694
-1155.62 -373.313 1701
-1153.58 -373.971 1704
-1158.95 -377.044 1718
-1154.84 -377.044 1718
-1155.42 -378.58 1725
-1155.3 -379.897 1731
-1155.82 -381.433 1738
-1151.66 -381.433 1738
-1156.09 -384.286 1751
-1163.75 -388.237 1769
-1159.52 -388.237 1769
-1159.2 -389.554 1775
-1168.62 -394.162 1796
-1166.92 -395.04 1800
-1162.62 -395.04 1800
-1160.89 -395.918 1804
-1159.78 -397.015 1809
-1159.29 -398.332 1815
-1154.94 -398.332 1815
-1151.87 -398.771 1817
-1148.79 -399.21 1819
-1150.73 -401.405 1829
-1146.36 -401.405 1829
-1144.48 -402.283 1833
-1145.08 -404.038 1841
-1147.49 -406.452 1852
-1143.06 -406.452 1852
-1144.78 -408.647 1862
-1153.19 -413.256 1883
-1165.77 -419.401 1911
-1161.2 -419.401 1911
-1159.05 -420.279 1915
-1157.48 -421.376 1920
-1155.29 -422.254 1924
-1150.69 -422.254 1924
-1150.26 -423.79 1931
-1150.98 -425.766 1940
-1150.48 -427.302 1947
-1145.82 -427.302 1947
-1146.44 -429.277 1956
-1142.93 -429.716 1958
-1145.23 -432.35 1970
-1140.52 -432.35 1970
-1138.11 -433.227 1974
-1136.26 -434.325 1979
-1134.39 -435.422 1984
-1129.64 -435.422 1984
-1132.84 -438.495 1998
-1130.88 -439.592 2003
-1132.84 -442.226 2015
-1128.02 -442.226 2015
-1128.78 -444.42 2025
-1134.48 -448.59 2044
-1129.59 -448.59 2044
-1136.26 -453.199 2065
-1142.28 -457.588 2085
-1148.75 -462.197 2106
-1143.71 -462.197 2106
-1141.92 -463.514 2112
-1139.56 -464.611 2117
-1138.78 -466.367 2125
-1133.7 -466.367 2125
-1140.31 -471.195 2147
-1144.16 -474.926 2164
-1143.2 -476.682 2172
-1138 -476.682 2172
-1134.37 -477.34 2175
-1138 -481.071 2192
-1152.39 -489.411 2230
-1147.06 -489.411 2230
-1157.6 -496.214 2261
-1161.37 -500.165 2279
-1164.03 -503.676 2295
-1158.54 -503.676 2295
-1157.58 -505.651 2304
-1158.57 -508.505 2317
-1158 -510.699 2327
-1152.44 -510.699 2327
-1153.28 -513.552 2340
-1157.49 -517.942 2360
-1158.2 -520.795 2373
-1152.52 -520.795 2373
-1150.23 -522.331 2380
-1154.16 -526.72 2400
-1151.77 -528.257 2407
-1149.34 -529.793 2414
-1153.52 -534.402 2435
-1156.18 -538.352 2453
-1150.31 -538.352 2453
-1144.45 -538.352 2453
-1148.79 -543.18 2475
-1153.04 -548.009 2497
-1147.06 -548.009 2497
-1141.09 -548.009 2497
-1136.94 -548.886 2501
-1130.96 -548.886 2501
-1124.98 -548.886 2501
-1122.58 -550.642 2509
-1121.47 -553.056 2520
-1115.45 -553.056 2520
-1109.42 -553.056 2520
-1103.39 -553.056 2520
-1099.11 -553.934 2524
-1094.81 -554.812 2528
-1088.76 -554.812 2528
-1087.43 -557.226 2539
-1093.28 -563.371 2567
-1087.14 -563.371 2567
-1081 -563.371 2567
-1074.87 -563.371 2567
-1067.06 -562.493 2563
-1067.14 -565.785 2578
-1060.98 -565.785 2578
-1065.04 -571.272 2603
-1060.44 -572.15 2607
-1054.21 -572.15 2607
-1047.98 -572.15 2607
-1051.84 -638.868 2911
-1048.83 -641.282 2922
-1073.57 -660.815 3011
-1066.37 -660.815 3011
-1063.04 -663.229 3022
-1063.5 -668.057 3044
-1060.04 -670.471 3055
-1052.74 -670.471 3055
-1055.35 -676.836 3084
-1047.98 -676.836 3084
-1040.6 -676.836 3084
-1031.22 -675.519 3078
-1025.85 -676.836 3084
-1029.71 -684.297 3118
-1032.09 -690.881 3148
-1024.56 -690.881 3148
-1036.42 -704.049 3208
-1034.84 -708.219 3227
-1033.17 -712.389 3246
-1025.41 -712.389 3246
-1019.53 -713.706 3252
-1013.62 -715.023 3258
-1009.84 -717.876 3271
-1002.02 -717.876 3271
-996.322 -719.412 3278
-994.213 -723.582 3297
-992.312 -727.971 3317
-984.38 -727.971 3317
-989.99 -738.067 3363
-983.992 -739.603 3370
-986.069 -747.284 3405
-977.926 -747.284 3405
-971.778 -748.821 3412
-969.549 -753.429 3433
-961.34 -753.429 3433
-953.131 -753.429 3433
-946.848 -754.966 3440
-944.352 -759.575 3461
-942.026 -764.403 3483
-933.697 -764.403 3483
-925.368 -764.403 3483
-913.09 -761.111 3468
-904.797 -761.111 3468
-896.504 -761.111 3468
-895.638 -767.475 3497
-887.276 -767.475 3497
-880.924 -769.231 3505
-872.542 -769.231 3505
-865.887 -770.767 3512
-857.488 -770.767 3512
-849.09 -770.767 3512
-840.692 -770.767 3512
-839.403 -777.351 3542
-834.452 -780.643 3557
-825.946 -780.643 3557
-817.44 -780.643 3557
-810.754 -782.399 3565
-803.804 -783.935 3572
-798.825 -787.447 3588
-790.245 -787.447 3588
-781.665 -787.447 3588
-773.085 -787.447 3588
-774.519 -797.762 3635
-765.827 -797.762 3635
-763.8 -804.785 3667
-758.325 -808.296 3683
-749.518 -808.296 3683
-740.711 -808.296 3683
-730.314 -806.54 3675
-721.526 -806.54 3675
-714.289 -808.296 3683
-705.482 -808.296 3683
-698.188 -810.052 3691
-689.362 -810.052 3691
-680.536 -810.052 3691
-668.797 -806.54 3675
-654.083 -799.298 3642
-641.298 -794.25 3619
-628.448 -788.983 3595
-619.852 -788.983 3595
-611.255 -788.983 3595
-591.259 -774.059 3527
-590.261 -783.935 3572
-589.373 -794.25 3619
-580.719 -794.25 3619
-572.065 -794.25 3619
-563.411 -794.25 3619
-554.757 -794.25 3619
-540.218 -785.691 3580
-528.241 -780.643 3557
-207.485 -311.643 1420
-204.089 -311.643 1420
-200.694 -311.643 1420
-197.298 -311.643 1420
-193.902 -311.643 1420
-190.104 -310.984 1417
-186.716 -310.984 1417
-183.198 -310.765 1416
-179.812 -310.765 1416
-176.177 -310.326 1414
-172.795 -310.326 1414
-169.294 -310.107 1413
-165.915 -310.107 1413
-162.076 -309.229 1409
-158.707 -309.229 1409
-155.337 -309.229 1409
-152.076 -309.448 1410
-148.704 -309.448 1410
-145.333 -309.448 1410
-141.961 -309.448 1410
-138.589 -309.448 1410
-135.217 -309.448 1410
-131.846 -309.448 1410
-128.383 -309.229 1409
-125.013 -309.229 1409
-121.558 -309.009 1408
-118.191 -309.009 1408
-114.579 -308.351 1405
-111.219 -308.351 1405
-107.86 -308.351 1405
-104.5 -308.351 1405
-101.14 -308.351 1405
-97.7106 -308.131 1404
-94.286 -307.912 1403
-90.8014 -307.473 1401
-87.4512 -307.473 1401
-84.101 -307.473 1401
-80.7507 -307.473 1401
-77.3453 -307.254 1400
-73.9975 -307.254 1400
-70.6496 -307.254 1400
-67.3018 -307.254 1400
-63.9997 -307.473 1401
-60.6927 -307.692 1402
-57.3401 -307.692 1402
-53.9875 -307.692 1402
-50.5988 -307.473 1401
-47.2823 -307.692 1402
-43.9297 -307.692 1402
-40.635 -308.131 1404
-37.2776 -308.131 1404
-33.9202 -308.131 1404
-30.5193 -307.692 1402
-27.1667 -307.692 1402
-23.8311 -307.912 1403
-20.4761 -307.912 1403
-17.1211 -307.912 1403
-13.7661 -307.912 1403
-10.4111 -307.912 1403
-7.05606 -307.912 1403
-3.7037 -308.131 1404
-0.346313 -308.131 1404
3.01322 -308.351 1405
6.38661 -309.009 1408
9.75356 -309.009 1408
13.1205 -309.009 1408
16.4523 -308.351 1405
19.8121 -308.351 1405
23.2214 -309.009 1408
26.5883 -309.009 1408
29.9553 -309.009 1408
33.3222 -309.009 1408
36.7153 -309.229 1409
40.0846 -309.229 1409
43.4848 -309.448 1410
46.8898 -309.668 1411
50.2639 -309.668 1411
53.638 -309.668 1411
57.1334 -310.326 1414
60.5575 -310.546 1415
63.9863 -310.765 1416
67.3724 -310.765 1416
70.8085 -310.984 1417
74.197 -310.984 1417
77.6949 -311.423 1419
81.0882 -311.423 1419
84.4815 -311.423 1419
87.9986 -311.862 1421
91.4609 -312.082 1422
94.8614 -312.082 1422
98.2618 -312.082 1422
101.877 -312.74 1425
105.284 -312.74 1425
108.692 -312.74 1425
111.942 -312.301 1423
115.345 -312.301 1423
118.748 -312.301 1423
122.322 -312.74 1425
125.73 -312.74 1425
129.138 -312.74 1425
132.545 -312.74 1425
135.953 -312.74 1425
139.36 -312.74 1425
142.768 -312.74 1425
146.176 -312.74 1425
149.583 -312.74 1425
152.991 -312.74 1425
156.398 -312.74 1425
159.582 -312.301 1423
162.985 -312.301 1423
166.27 -312.082 1422
169.313 -311.423 1419
172.219 -310.546 1415
175.603 -310.546 1415
178.734 -310.107 1413
181.726 -309.448 1410
185.098 -309.448 1410
187.801 -308.351 1405
191.161 -308.351 1405
193.967 -307.473 1401
196.19 -305.717 1393
198.089 -303.523 1383
201.396 -303.523 1383
203.223 -301.328 1373
205.454 -299.792 1366
208.109 -298.914 1362
211.366 -298.914 1362
213.362 -297.158 1354
216.44 -296.939 1353
219.676 -296.939 1353
222.582 -296.5 1351
225.812 -296.5 1351
228.873 -296.28 1350
232.274 -296.5 1351
235.504 -296.5 1351
238.735 -296.5 1351
241.966 -296.5 1351
245.015 -296.28 1350
248.243 -296.28 1350
251.471 -296.28 1350
253.945 -295.402 1346
256.972 -295.183 1345
260.382 -295.402 1346
263.601 -295.402 1346
266.82 -295.402 1346
270.038 -295.402 1346
273.257 -295.402 1346
277.092 -296.061 1349
280.318 -296.061 1349
283.544 -296.061 1349
286.77 -296.061 1349
289.78 -295.841 1348
293.004 -295.841 1348
296.227 -295.841 1348
299.451 -295.841 1348
302.674 -295.841 1348
305.898 -295.841 1348
308.663 -295.402 1346
311.65 -295.183 1345
314.866 -295.183 1345
318.319 -295.402 1346
321.537 -295.402 1346
324.756 -295.402 1346
327.975 -295.402 1346
331.193 -295.402 1346
334.164 -295.183 1345
337.38 -295.183 1345
340.596 -295.183 1345
343.813 -295.183 1345
347.029 -295.183 1345
350.245 -295.183 1345
353.462 -295.183 1345
356.678 -295.183 1345
359.894 -295.183 1345
363.11 -295.183 1345
366.327 -295.183 1345
369.543 -295.183 1345
373.036 -295.402 1346
376.255 -295.402 1346
380.038 -295.841 1348
383.261 -295.841 1348
386.485 -295.841 1348
389.708 -295.841 1348
393.223 -296.061 1349
396.449 -296.061 1349
399.675 -296.061 1349
402.901 -296.061 1349
406.127 -296.061 1349
409.352 -296.061 1349
412.578 -296.061 1349
415.804 -296.061 1349
419.03 -296.061 1349
422.256 -296.061 1349
425.797 -296.28 1350
429.025 -296.28 1350
432.254 -296.28 1350
435.482 -296.28 1350
439.035 -296.5 1351
442.266 -296.5 1351
445.497 -296.5 1351
449.059 -296.719 1352
452.292 -296.719 1352
455.525 -296.719 1352
458.758 -296.719 1352
461.991 -296.719 1352
465.225 -296.719 1352
468.804 -296.939 1353
472.039 -296.939 1353
475.275 -296.939 1353
478.864 -297.158 1354
482.458 -297.378 1355
485.698 -297.378 1355
488.938 -297.378 1355
492.542 -297.597 1356
495.784 -297.597 1356
499.027 -297.597 1356
502.27 -297.597 1356
505.512 -297.597 1356
509.13 -297.816 1357
512.375 -297.816 1357
515.62 -297.816 1357
518.865 -297.816 1357
522.11 -297.816 1357
526.129 -298.255 1359
529.379 -298.255 1359
532.629 -298.255 1359
535.879 -298.255 1359
539.525 -298.475 1360
542.777 -298.475 1360
546.431 -298.694 1361
549.686 -298.694 1361
552.94 -298.694 1361
556.195 -298.694 1361
559.449 -298.694 1361
562.704 -298.694 1361
566.374 -298.914 1362
569.631 -298.914 1362
572.888 -298.914 1362
576.568 -299.133 1363
580.253 -299.353 1364
583.515 -299.353 1364
586.776 -299.353 1364
590.471 -299.572 1365
593.735 -299.572 1365
597.436 -299.792 1366
600.703 -299.792 1366
603.969 -299.792 1366
609.014 -300.669 1370
612.737 -300.889 1371
616.015 -300.889 1371
619.294 -300.889 1371
623.481 -301.328 1373
626.764 -301.328 1373
630.047 -301.328 1373
633.792 -301.547 1374
637.541 -301.767 1375
642.227 -302.425 1378
645.522 -302.425 1378
648.818 -302.425 1378
652.113 -302.425 1378
655.408 -302.425 1378
658.703 -302.425 1378
661.998 -302.425 1378
664.328 -301.986 1376
667.619 -301.986 1376
669.934 -301.547 1374
673.219 -301.547 1374
678.475 -302.425 1378
681.77 -302.425 1378
685.065 -302.425 1378
688.36 -302.425 1378
688.644 -301.108 1372
692.933 -301.547 1374
698.246 -302.425 1378
701.541 -302.425 1378
704.836 -302.425 1378
2629.28 -897.4 4089
2639.06 -897.4 4089
2648.84 -897.4 4089
2658.62 -897.4 4089
2668.4 -897.4 4089
2678.17 -897.4 4089
2674.8 -893.01 4069
2684.53 -893.01 4069
2687.64 -890.816 4059
2697.35 -890.816 4059
2700.39 -888.621 4049
2723.46 -893.01 4069
2733.19 -893.01 4069
2742.92 -893.01 4069
2752.65 -893.01 4069
2762.38 -893.01 4069
2765.29 -890.816 4059
2775 -890.816 4059
2784.71 -890.816 4059
2774.45 -884.451 4030
2764.05 -878.087 4001
2753.51 -871.722 3972
2763.01 -871.722 3972
2739.7 -861.407 3925
2711.27 -849.556 3871
2714.2 -847.581 3862
2723.44 -847.581 3862
2713.57 -841.655 3835
2704.28 -835.949 3809
2713.39 -835.949 3809
2722.49 -835.949 3809
2725.15 -833.974 3800
2722 -830.243 3783
2688.46 -817.294 3724
2667.66 -808.296 3683
2676.47 -808.296 3683
2673.61 -804.785 3667
2669.95 -801.054 3650
2655.92 -794.25 3619
2664.58 -794.25 3619
2673.23 -794.25 3619
2675.96 -792.495 3611
2661.55 -785.691 3580
2670.11 -785.691 3580
2661.46 -780.643 3557
2663.96 -778.888 3549
2672.45 -778.888 3549
2680.93 -778.888 3549
2689.42 -778.888 3549
2692.58 -777.351 3542
2694.95 -775.596 3534
2686.58 -770.767 3512
-1180.74 -342.321 1577
-1179.21 -342.973 1580
-1177.66 -343.624 1583
-1176.84 -344.492 1587
-1173.05 -344.492 1587
-1170.72 -344.926 1589
-1169.13 -345.577 1592
-1167.52 -346.229 1595
-1163.7 -346.229 1595
-1162.8 -347.097 1599
-1166.95 -349.485 1610
-1168.15 -351.004 1617
-1164.29 -351.004 1617
-1164.73 -352.307 1623
-1162.99 -352.958 1626
-1162.67 -354.043 1631
-1158.77 -354.043 1631
-1158.41 -355.129 1636
-1162.96 -357.733 1648
-1162.54 -358.819 1653
-1158.59 -358.819 1653
-1166.51 -362.509 1670
-1162.51 -362.509 1670
-1158.52 -362.509 1670
-1154.53 -362.509 1670
-1156.04 -364.246 1678
-1158.21 -366.199 1687
-1158.97 -367.719 1694
-1154.92 -367.719 1694
-1155.62 -369.238 1701
-1153.58 -369.889 1704
-1158.95 -372.928 1718
-1154.84 -372.928 1718
-1155.42 -374.448 1725
-1155.3 -375.75 1731
-1157.15 -377.704 1740
-1152.99 -377.704 1740
-1156.09 -380.092 1751
-1163.75 -383.999 1769
-1159.52 -383.999 1769
-1159.2 -385.302 1775
-1169.92 -390.294 1798
-1166.92 -390.728 1800
-1162.62 -390.728 1800
-1161.53 -391.814 1805
-1159.78 -392.682 1809
-1159.29 -393.984 1815
-1154.94 -393.984 1815
-1151.87 -394.419 1817
-1148.79 -394.853 1819
-1151.99 -397.458 1831
-1147.61 -397.458 1831
-1145.73 -398.326 1835
-1145.08 -399.628 1841
-1147.49 -402.016 1852
-1143.06 -402.016 1852
-1144.78 -404.187 1862
-1154.41 -409.179 1885
-1165.77 -414.823 1911
-1161.2 -414.823 1911
-1159.05 -415.691 1915
-1157.48 -416.777 1920
-1155.29 -417.645 1924
-1150.69 -417.645 1924
-1151.45 -419.599 1933
-1152.17 -421.552 1942
-1151.66 -423.072 1949
-1147 -423.072 1949
-1147.61 -425.026 1958
-1144.1 -425.46 1960
-1145.23 -427.63 1970
-1140.52 -427.63 1970
-1138.11 -428.499 1974
-1136.26 -429.584 1979
-1134.39 -430.669 1984
-1129.64 -430.669 1984
-1132.84 -433.708 1998
-1130.88 -434.794 2003
-1132.84 -437.399 2015
-1128.02 -437.399 2015
-1128.78 -439.569 2025
-1134.48 -443.694 2044
-1129.59 -443.694 2044
-1136.26 -448.252 2065
-1142.28 -452.594 2085
-1148.75 -457.152 2106
-1143.71 -457.152 2106
-1141.92 -458.455 2112
-1139.56 -459.54 2117
-1138.78 -461.276 2125
-1133.7 -461.276 2125
-1140.31 -466.052 2147
-1144.16 -469.742 2164
-1143.2 -471.479 2172
-1138 -471.479 2172
-1134.37 -472.13 2175
-1138 -475.82 2192
-1152.39 -484.069 2230
-1147.06 -484.069 2230
-1157.6 -490.798 2261
-1162.89 -495.357 2282
-1164.03 -498.179 2295
-1158.54 -498.179 2295
-1164.11 -502.954 2317
-1161.57 -504.257 2323
-1160.99 -506.427 2333
-1155.41 -506.427 2333
-1153.28 -507.947 2340
-1160.44 -513.591 2366
-1159.66 -515.761 2376
-1153.98 -515.761 2376
-1153.61 -518.149 2387
-1154.16 -520.971 2400
-1151.77 -522.491 2407
-1156.01 -527.049 2428
-1162.05 -532.476 2453
-1159.95 -534.212 2461
-1154.07 -534.212 2461
-1148.18 -534.212 2461
-1142.3 -534.212 2461
-1149.8 -540.507 2490
-1143.85 -540.507 2490
-1137.89 -540.507 2490
-1135.12 -542.027 2497
